# .PCD v0.7 - Point Cloud Data file format
VERSION 0.7
FIELDS x y z rgba
SIZE 4 4 4 4
TYPE F F F U
COUNT 1 1 1 1
WIDTH 1106
HEIGHT 1
VIEWPOINT 0 0 0 1 0 0 0
POINTS 1106
DATA ascii
-0.049829111 0.029142061 0.48182353 2361351
-0.048846252 0.029162787 0.48219848 2361351
-0.047849536 0.029176001 0.48244846 2689544
-0.04683974 0.0291817 0.48257345 2557958
-0.045805801 0.029172331 0.48244846 2361349
-0.044749293 0.029147891 0.48207349 2034183
-0.043694492 0.029123507 0.48169854 1771524
-0.042652454 0.029106723 0.48144856 1771524
-0.041611571 0.029089991 0.48119858 2296069
-0.040571854 0.029073311 0.48094863 3214345
-0.039553843 0.029071782 0.48094863 3280138
-0.038525909 0.029062746 0.48082364 3542027
-0.037498601 0.029053761 0.48069865 3607307
-0.036462415 0.029037269 0.48044866 3738893
-0.035436597 0.029028378 0.48032367 3738893
-0.03440243 0.02901198 0.48007372 3541514
-0.033386771 0.029010734 0.48007372 3542797
-0.032379616 0.029017087 0.48019871 3477002
-0.031380165 0.029031031 0.48044866 3083271
-0.030379724 0.029045025 0.48069865 3084041
-0.029393561 0.029074172 0.48119858 3215629
-0.028427452 0.029126011 0.48207349 2886923
-0.027457701 0.029177893 0.48294839 3084302
-0.026504831 0.029252475 0.48419827 3348244
-0.025540143 0.029319536 0.48532316 3479832
-0.024564441 0.0293791 0.48632306 2823962
-0.023572451 0.0294236 0.48707297 2497311
-0.15093167 0.029585741 0.46495032 2560525
-0.1499117 0.029578051 0.46495032 2560011
-0.14937268 0.029665828 0.46645015 2099974
-0.14878796 0.029745674 0.46782503 2034181
-0.14807934 0.029801706 0.46882492 2034181
-0.14728853 0.029841889 0.46957484 1903108
-0.14680651 0.029945645 0.47132465 1968903
-0.14631741 0.030049412 0.47307447 1903110
-0.14589798 0.030169066 0.47507423 1903110
-0.14520366 0.030233182 0.47619912 1968903
-0.14439146 0.030273532 0.47694904 2034696
-0.14350145 0.030298056 0.477449 2231562
-0.14257249 0.030314701 0.47782394 2034183
-0.14160545 0.030323479 0.47807392 2034183
-0.14063787 0.030332318 0.47832391 2099976
-0.13970624 0.030349135 0.47869885 2034183
-0.13877352 0.030366013 0.47907382 2034183
-0.13783965 0.030382939 0.47944877 2034183
-0.13690469 0.030399922 0.47982374 1771524
-0.13596863 0.03041696 0.48019871 1903110
-0.13503146 0.030434053 0.48057365 1574915
-0.13409317 0.030451203 0.48094863 1378049
-0.13311921 0.030460494 0.48119858 1247233
-0.13238475 0.030525209 0.48232347 1247235
-0.13133961 0.030518785 0.48232347 1247235
-0.13032874 0.030520335 0.48244846 1313028
-0.12928429 0.030514037 0.48244846 1378821
-0.1282403 0.030507801 0.48244846 1574917
-0.12719682 0.030501628 0.48244846 1771524
-0.12582694 0.030416513 0.48119858 1903110
-0.12449536 0.030339399 0.48007372 1968903
-0.1232655 0.030286063 0.4793238 2034183
-0.12216683 0.030264389 0.47907382 2099462
-0.12106966 0.030242778 0.47882384 2361862
-0.1200367 0.030237032 0.47882384 2296069
-0.11900412 0.030231338 0.47882384 2361349
-0.11800277 0.030233596 0.47894883 2361349
-0.11718445 0.030283239 0.47982374 2295556
-0.11621149 0.030293491 0.48007372 2230276
-0.11526784 0.030311683 0.48044866 1967874
-0.11426355 0.030314155 0.48057365 1836804
-0.11331802 0.030332455 0.48094863 1574915
-0.11242959 0.030366564 0.48157355 1509122
-0.11162563 0.030424358 0.48257345 1378049
-0.11084638 0.030490071 0.48369834 984577
-0.11009105 0.030563692 0.48494819 985090
-0.10935882 0.030645231 0.48632306 984836
-0.10862105 0.030726792 0.4876979 985606
-0.091061547 0.029066987 0.46220061 2689798
-0.089976043 0.029031454 0.46170068 2951687
-0.088844784 0.028980272 0.46095076 3016964
-0.087740824 0.028937008 0.46032581 3148037
-0.086639822 0.028893802 0.45970088 3410693
-0.085588336 0.028866379 0.45932594 3476486
-0.084584765 0.028854717 0.45920095 3475203
-0.083604738 0.028850963 0.45920095 3606789
-0.082669944 0.028862962 0.4594509 3606787
-0.081734337 0.02887501 0.45970088 3606787
-0.080841839 0.028902803 0.46020085 3672580
-0.079947427 0.028930642 0.46070078 3804166
-0.079051144 0.028958527 0.46120071 3738373
-0.07813181 0.028978603 0.46157569 3344387
-0.077211112 0.028998725 0.46195066 3541766
-0.076289035 0.029018894 0.4623256 3475973
-0.07540632 0.029054796 0.46295053 3475973
-0.074541263 0.029098589 0.46370047 3475973
-0.073712856 0.029158097 0.46470034 3344387
-0.072880425 0.029217647 0.46570024 3475973
-0.072043963 0.029277233 0.46670014 3475973
-0.071184412 0.029329017 0.46757504 3475973
-0.070283823 0.029365167 0.46819997 3475973
-0.069380775 0.029401349 0.46882492 3082757
-0.068475261 0.029437577 0.46944985 2557699
-0.067639157 0.029505191 0.47057474 1574145
-0.066798471 0.02957285 0.4716996 1115649
-0.066022918 0.029671879 0.47332445 1181442
-0.065240644 0.029770941 0.47494927 1247235
-0.064400926 0.029846529 0.47619912 1378567
-0.063522816 0.029906489 0.47719902 1509637
-0.062607899 0.029950827 0.47794893 1836806
-0.06164163 0.029971706 0.47832391 2165255
-0.060673948 0.029992634 0.47869885 2296071
-0.059704844 0.030013608 0.47907382 2492937
-0.058718987 0.030026795 0.4793238 2427144
-0.057717193 0.030032208 0.47944877 2427144
-0.056715015 0.030037662 0.47957376 2361351
-0.055712443 0.030043161 0.47969875 2557960
-0.054695256 0.030040883 0.47969875 2689546
-0.053692196 0.030046484 0.47982374 2623753
-0.052688744 0.030052137 0.47994873 2623753
-0.051698346 0.030065654 0.48019871 2492937
-0.050707016 0.030079216 0.48044866 2492937
-0.049727701 0.030100657 0.48082364 2361351
-0.04874691 0.030122139 0.48119858 2623238
-0.047752261 0.030135848 0.48144856 2754824
-0.046756677 0.0301496 0.48169854 2820617
-0.045736406 0.030147752 0.48169854 2689031
-0.044716254 0.030145952 0.48169854 2557958
-0.043673523 0.030128552 0.48144856 2361349
-0.042631969 0.030111212 0.48119858 2296069
-0.041602377 0.030101739 0.48107362 2361862
-0.040573422 0.030092314 0.48094863 3082759
-0.039565645 0.030098574 0.48107362 3411724
-0.038537402 0.030089246 0.48094863 3411211
-0.037509773 0.030079961 0.48082364 3542027
-0.036482759 0.030070728 0.48069865 3673100
-0.035456363 0.030061543 0.48057365 3673100
-0.034430575 0.030052409 0.48044866 3476234
-0.033422779 0.030058959 0.48057365 3477004
-0.032422945 0.030073365 0.48082364 3477517
-0.031430293 0.030095633 0.48119858 3149066
-0.030459817 0.0301414 0.48194852 3149836
-0.029509138 0.030210659 0.48307338 3018509
-0.028575875 0.030303413 0.48457325 3019281
-0.027650539 0.030411834 0.48632306 3216662
-0.15112846 0.030820871 0.46869993 2429452
-0.15042107 0.030878745 0.46969983 1838085
-0.14959066 0.030912023 0.47032475 1838087
-0.14875807 0.030945335 0.47094968 1838087
-0.14788418 0.030970495 0.47144964 1968903
-0.1476316 0.031127049 0.47394937 1968903
-0.14686611 0.031176895 0.47482428 2034183
-0.14625089 0.031259604 0.47619912 2165253
-0.14543971 0.031301327 0.47694904 2296839
-0.14458799 0.031334896 0.47757399 2231046
-0.14365895 0.03135211 0.47794893 2296839
-0.14265427 0.031352997 0.47807392 2231046
-0.14168663 0.031362139 0.47832391 2231046
-0.14075519 0.031379532 0.47869885 2231048
-0.13978621 0.031388797 0.47894883 2099976
-0.13881665 0.031398121 0.47919881 2034183
-0.13784651 0.031407498 0.47944877 2034183
-0.13687585 0.031416941 0.47969875 1903110
-0.13590461 0.031426441 0.47994873 1705731
-0.13493283 0.031436004 0.48019871 1574915
-0.13392557 0.031437442 0.48032367 1247233
-0.13305661 0.031471658 0.48094863 1247233
-0.13194527 0.031448685 0.48069865 1247235
-0.13076745 0.031409439 0.48019871 1313028
-0.12932216 0.031304874 0.47869885 1772294
-0.12778334 0.0311759 0.47682405 2099976
-0.12665181 0.031145094 0.4764491 2099976
-0.12548941 0.031106178 0.47594914 2165253
-0.12419888 0.031034678 0.47494927 2165253
-0.12310762 0.031012259 0.47469929 2296069
-0.12205002 0.030998072 0.4745743 2361349
-0.12105716 0.031000277 0.47469929 2558212
-0.1202222 0.031043349 0.4754492 2558212
-0.11938445 0.031086458 0.47619912 2492419
-0.11860601 0.031145927 0.47719902 2558212
-0.11788528 0.031221749 0.4784489 2624005
-0.1169764 0.031248672 0.47894883 2492419
-0.11609602 0.031283796 0.47957376 2295556
-0.11518339 0.031310823 0.48007372 2296069
-0.11426899 0.031337894 0.48057365 1967874
-0.11332339 0.031356867 0.48094863 1771522
-0.11246412 0.031400338 0.48169854 1705729
-0.11165982 0.031460144 0.48269844 1509120
-0.11088025 0.031528123 0.4838233 1181442
-0.11015299 0.031612445 0.48519817 984577
-0.10936396 0.031680498 0.48632306 919297
-0.10857048 0.031748589 0.48744792 1050629
-0.090991847 0.030025225 0.46182567 2820101
-0.089882717 0.029980415 0.46120071 3016966
-0.088680185 0.029903181 0.46007586 3082244
-0.087578043 0.029858505 0.4594509 3148037
-0.086502396 0.029822018 0.45895097 3344387
-0.085475758 0.029801838 0.45870098 3541766
-0.084473468 0.029789831 0.45857602 3606275
-0.083517469 0.029794114 0.45870098 3803654
-0.082583703 0.029806569 0.45895097 3869447
-0.08167135 0.029827189 0.45932594 3606789
-0.080757633 0.029847855 0.45970088 3475203
-0.07988593 0.029884791 0.46032581 3672580
-0.078990392 0.029913658 0.46082577 3672580
-0.078092963 0.029942576 0.46132571 3344385
-0.077172764 0.029963426 0.46170068 3344385
-0.076271802 0.029992428 0.46220061 3344385
-0.075409651 0.030037688 0.46295053 3475971
-0.074564636 0.030091111 0.46382543 3344385
-0.073735937 0.030152673 0.46482533 3344387
-0.072903194 0.030214276 0.46582523 3278594
-0.072047122 0.03026781 0.46670014 3344387
-0.071168497 0.030313278 0.46745005 3344387
-0.070268109 0.03035068 0.46807501 3410693
-0.069346786 0.030380027 0.46857494 3280390
-0.068441771 0.030417517 0.46919987 2492419
-0.06758818 0.030479357 0.47019976 1443329
-0.066765949 0.030557444 0.47144964 1312258
-0.065973453 0.030651761 0.47294948 1247235
-0.065209106 0.030762307 0.47469929 1247235
-0.064369887 0.030840497 0.47594914 1313028
-0.063492261 0.030902522 0.47694904 1509383
-0.062577821 0.030948391 0.47769895 1968392
-0.061628152 0.03097811 0.47819892 2165255
-0.060644835 0.030991679 0.4784489 2361351
-0.059676208 0.03101339 0.47882384 2557960
-0.058675528 0.031018967 0.47894883 2623753
-0.057674471 0.031024588 0.47907382 2689546
-0.056673042 0.031030262 0.47919881 2623753
-0.055656705 0.031027891 0.47919881 2492167
-0.05464052 0.031025568 0.47919881 2689544
-0.053638469 0.031031385 0.4793238 2689031
-0.052636024 0.031037256 0.47944877 2689031
-0.051633179 0.031043172 0.47957376 2623238
-0.050643146 0.031057229 0.47982374 2623238
-0.049665101 0.031079421 0.48019871 2819847
-0.048685592 0.031101663 0.48057365 3016966
-0.047704607 0.031123942 0.48094863 3016966
-0.046697903 0.031130109 0.48107362 3082759
-0.045690779 0.031136308 0.48119858 3016966
-0.044671629 0.031134469 0.48119858 3082759
-0.043641258 0.031124603 0.48107362 2885894
-0.042611524 0.031114781 0.48094863 2558212
-0.041593213 0.03111309 0.48094863 2624005
-0.040575013 0.031111456 0.48094863 3149836
-0.039556913 0.031109866 0.48094863 3214859
-0.038548917 0.031116409 0.48107362 3345931
-0.03754048 0.031123001 0.48119858 3740176
-0.036522109 0.031121552 0.48119858 3805969
-0.035503827 0.031120157 0.48119858 3411211
-0.034485623 0.031118812 0.48119858 3477004
-0.033484884 0.031133678 0.48144856 3345931
-0.032500017 0.031164754 0.48194852 3477517
-0.031529427 0.031212039 0.48269844 3281422
-0.030611033 0.031315941 0.48432326 3150095
-0.029731639 0.031468369 0.486698 3019281
-0.15214404 0.032037485 0.47182459 2364942
-0.15146977 0.032105759 0.47294948 1772805
-0.15067191 0.032148615 0.47369939 1772807
-0.14971344 0.032157592 0.47394937 1772807
-0.1487937 0.032175113 0.47432432 1838600
-0.14787292 0.032192696 0.47469929 2099976
-0.14729904 0.032286603 0.47619912 2296841
-0.14645043 0.032321226 0.47682405 2427655
-0.14559971 0.032355901 0.477449 2427655
-0.14467117 0.032373697 0.47782394 2427655
-0.14374155 0.032391541 0.47819892 2493448
-0.14277352 0.032400981 0.4784489 2361862
-0.14180502 0.032410495 0.47869885 2296069
-0.14079918 0.032411598 0.47882384 2165253
-0.13979337 0.032412771 0.47894883 2034181
-0.13882376 0.032422468 0.47919881 1968903
-0.13785355 0.032432217 0.47944877 1771524
-0.13684717 0.032433592 0.47957376 1640708
-0.13584074 0.032435019 0.47969875 1509122
-0.13486941 0.032444961 0.47994873 1378049
-0.13382782 0.03243807 0.47994873 1247233
-0.13278669 0.032431249 0.47994873 1116163
-0.13154024 0.032373831 0.47919881 1444614
-0.12968481 0.032164536 0.47619912 2362634
-0.12831564 0.032073569 0.47494927 2296069
-0.1264499 0.031856112 0.47182459 2559241
-0.12549521 0.03186661 0.47207457 2492935
-0.124507 0.031868726 0.47219956 2361349
-0.12348598 0.031862468 0.47219956 2427142
-0.12246542 0.03185628 0.47219956 2492165
-0.12144532 0.031850152 0.47219956 2623492
-0.1204894 0.031860951 0.47244954 2623492
-0.11965924 0.031905517 0.47319946 2623492
-0.11913964 0.032034378 0.47519922 2623492
-0.11839439 0.032104295 0.47632411 2492419
-0.11761388 0.032165814 0.47732401 2492419
-0.11679897 0.032218955 0.47819892 2426626
-0.11598068 0.032272138 0.47907382 2426626
-0.11509904 0.032308523 0.47969875 2098690
-0.11418539 0.032336541 0.48019871 1967874
-0.11329945 0.032373022 0.48082364 1771009
-0.11246956 0.032426387 0.48169854 1639936
-0.11166523 0.032488201 0.48269844 1509120
-0.11091426 0.032566879 0.48394829 1181440
-0.11018667 0.032653999 0.48532316 1050370
-0.10934112 0.032707516 0.48619807 984577
-0.10826944 0.032693822 0.48607308 919297
-0.10747442 0.032764256 0.48719797 1116422
-0.090897582 0.030973613 0.46132571 2689285
-0.089618966 0.030868659 0.45982587 2885894
-0.088515677 0.030822512 0.45920095 3148037
-0.087415352 0.030776436 0.45857602 3411463
-0.086388633 0.030755581 0.45832604 3475973
-0.085386559 0.030743169 0.45820105 3738375
-0.084408298 0.030739201 0.45820105 3803654
-0.08343029 0.030735286 0.45820105 3606275
-0.082497522 0.03074819 0.45845103 3737861
-0.08158619 0.030769531 0.45882598 3737861
-0.080695458 0.030799305 0.45932594 3737861
-0.0798245 0.030837493 0.45995086 3672582
-0.078929722 0.030867344 0.4604508 3672582
-0.078033052 0.03089725 0.46095076 3344385
-0.077134468 0.030927196 0.4614507 3278592
-0.076275252 0.030973943 0.46220061 3278592
-0.075413056 0.031020729 0.46295053 3278594
-0.074588098 0.031084312 0.46395043 3278594
-0.073759086 0.031147923 0.46495032 3344387
-0.07292603 0.031211579 0.46595022 3344387
-0.072069637 0.031266898 0.46682513 3344387
-0.071171656 0.031305518 0.46745005 3410693
-0.070252478 0.031335816 0.46795002 3279877
-0.069331385 0.031366158 0.46844995 2951685
-0.068426572 0.031404912 0.46907488 2164224
-0.067555241 0.031460438 0.46994978 1312256
-0.066715792 0.031532757 0.47107467 1181440
-0.065924034 0.031630188 0.4725745 1181442
-0.065143287 0.031736031 0.47419935 1247235
-0.064338885 0.031833537 0.47569919 1313028
-0.063461758 0.031897634 0.47669908 1640710
-0.062547788 0.031945039 0.477449 1967878
-0.061582487 0.031967398 0.47782394 2230278
-0.060615778 0.031989809 0.47819892 2689031
-0.059647627 0.032012265 0.47857386 2754824
-0.05864742 0.032018051 0.47869885 2689031
-0.057646848 0.032023892 0.47882384 2689031
-0.056645893 0.032029778 0.47894883 2819847
-0.055630047 0.032027356 0.47894883 2819847
-0.054614335 0.032024987 0.47894883 2819847
-0.053598776 0.03202267 0.47894883 2885640
-0.052597087 0.032028757 0.47907382 3082505
-0.051594995 0.032034896 0.47919881 3082505
-0.050592501 0.032041088 0.4793238 3082505
-0.049602535 0.032055683 0.47957376 3148039
-0.048624303 0.03207868 0.47994873 3410441
-0.047644604 0.032101717 0.48032367 3410441
-0.046639163 0.032108106 0.48044866 3410441
-0.045645181 0.032122884 0.48069865 3476232
-0.044638645 0.03212937 0.48082364 3410439
-0.043620355 0.032127548 0.48082364 3410439
-0.042613246 0.032134131 0.48094863 2885892
-0.0415949 0.03213241 0.48094863 2755078
-0.040587194 0.032139093 0.48107362 2886923
-0.039579049 0.032145817 0.48119858 2952716
-0.0385805 0.032160938 0.48144856 3214859
-0.037580971 0.032176118 0.48169854 3411724
-0.03658995 0.032199685 0.48207349 3674642
-0.035588212 0.032214954 0.48232347 3411470
-0.034603413 0.032246973 0.48282343 3543056
-0.033633959 0.032295726 0.48357335 3346191
-0.032686688 0.032369569 0.48469821 3149582
-0.031783715 0.032493535 0.48657301 2953488
-0.15380481 0.033407748 0.47694904 2563091
-0.15227856 0.033294354 0.4754492 1773577
-0.15131612 0.033303581 0.47569919 1839370
-0.15035322 0.033312887 0.47594914 1707784
-0.14935061 0.033313505 0.47607413 1969673
-0.14834805 0.033314191 0.47619912 2231560
-0.14746155 0.033341181 0.47669908 2560011
-0.14657341 0.033368222 0.47719902 2492935
-0.14568369 0.033395316 0.47769895 2492935
-0.14475451 0.033413734 0.47807392 2558728
-0.14382429 0.033432208 0.4784489 2558728
-0.14285567 0.033442017 0.47869885 2558728
-0.1418495 0.033443157 0.47882384 2427142
-0.14084333 0.033444364 0.47894883 2099974
-0.13987367 0.033454366 0.47919881 2034181
-0.13886723 0.033455707 0.4793238 1772294
-0.13786077 0.033457115 0.47944877 1574915
-0.13681863 0.033449862 0.47944877 1443842
-0.1358124 0.033451404 0.47957376 1443842
-0.1347359 0.033435583 0.47944877 1247233
-0.13366048 0.033419833 0.4793238 1181954
-0.13234399 0.03334317 0.47832391 1378821
-0.13072357 0.033188201 0.47619912 1968390
-0.12884049 0.032963689 0.47307447 2492935
-0.127478 0.032869946 0.47182459 2689798
-0.12635587 0.032837246 0.47144964 2689798
-0.12533553 0.032830738 0.47144964 2755078
-0.12434857 0.032832988 0.47157463 2689285
-0.12336154 0.032835305 0.4716996 2623238
-0.12234198 0.032828983 0.4716996 2557445
-0.12141931 0.032848816 0.47207457 2557699
-0.12043174 0.032851323 0.47219956 2557699
-0.11960208 0.032897353 0.47294948 2557699
-0.11880093 0.032952122 0.47382438 2557699
-0.11812072 0.033041704 0.47519922 2557699
-0.11740419 0.033122618 0.4764491 2557699
-0.11662164 0.033186201 0.477449 2492419
-0.11583517 0.033249814 0.4784489 2426626
-0.11498481 0.033296097 0.47919881 2098690
-0.11410192 0.033333745 0.47982374 1902081
-0.11327563 0.033388812 0.48069865 1705216
-0.11247514 0.033452593 0.48169854 1639938
-0.11172858 0.033533778 0.48294839 1639938
-0.11100567 0.033623669 0.48432326 1378049
-0.1101921 0.033687573 0.48532316 1050368
-0.10923404 0.033708137 0.4856981 984577
-0.10824692 0.033720091 0.48594809 1050370
-0.10720395 0.033714764 0.48594809 1313028
-0.10635244 0.033770181 0.48682299 1509637
-0.092386492 0.032132261 0.46382543 2296069
-0.090754166 0.031902719 0.46057579 2624005
-0.089452714 0.031785838 0.45895097 2951685
-0.088375315 0.031746924 0.45845103 3278853
-0.087300368 0.031708095 0.45795107 3542279
-0.086274937 0.03168663 0.45770112 3672582
-0.085297413 0.031682521 0.45770112 3606789
-0.084320173 0.031678472 0.45770112 3672582
-0.083388701 0.031691782 0.45795107 3409410
-0.082456425 0.031705141 0.45820105 3409410
-0.081523336 0.031718548 0.45845103 3475203
-0.08063335 0.031749301 0.45895097 3606789
-0.079763144 0.031788744 0.45957589 3475203
-0.078869119 0.031819593 0.46007586 3869961
-0.077994354 0.031859126 0.46070078 3673352
-0.07711716 0.031898711 0.46132571 3278594
-0.076258153 0.031946972 0.46207562 3475973
-0.075436898 0.032012556 0.46307552 3344387
-0.074591525 0.032069549 0.46395043 3344387
-0.07378228 0.03214385 0.46507531 3475973
-0.07294894 0.032209557 0.46607521 3607559
-0.072072923 0.032258034 0.46682513 3475973
-0.071174912 0.032297913 0.46745005 3279107
-0.070255682 0.032329202 0.46795002 3148291
-0.069297515 0.032343265 0.46819997 2689283
-0.068393193 0.032383282 0.46882492 2033152
-0.067522362 0.032440614 0.46969983 1181440
-0.066683382 0.03251525 0.47082469 1181440
-0.065874688 0.032607187 0.47219956 1247233
-0.065111868 0.032725047 0.47394937 1313028
-0.064307943 0.032825671 0.4754492 1443844
-0.063431293 0.032891836 0.4764491 1640710
-0.062517822 0.032940771 0.47719902 2099462
-0.061569121 0.032972507 0.47769895 2427142
-0.060602598 0.032995652 0.47807392 2820101
-0.059619091 0.033010226 0.47832391 2820101
-0.05861938 0.033016235 0.4784489 3016966
-0.057619274 0.033022281 0.47857386 3279625
-0.056618799 0.033028383 0.47869885 3148039
-0.055603433 0.033025917 0.47869885 3345418
-0.054588199 0.033023499 0.47869885 3148039
-0.05357312 0.033021137 0.47869885 3148039
-0.052571896 0.033027444 0.47882384 3608590
-0.051556829 0.033025187 0.47882384 3410441
-0.050555084 0.033031598 0.47894883 3278855
-0.049565863 0.033046678 0.47919881 3542027
-0.048575711 0.03306181 0.47944877 3607820
-0.047597021 0.033085607 0.47982374 3673100
-0.046616856 0.033109456 0.48019871 3607305
-0.045635231 0.033133354 0.48057365 3607305
-0.044628911 0.033140063 0.48069865 3541512
-0.043633506 0.033155441 0.48094863 3542025
-0.042615008 0.033153631 0.48094863 3411209
-0.041607417 0.033160485 0.48107362 4992553
-0.040620487 0.033184633 0.48144856 3415834
-0.039632071 0.033208817 0.48182353 2692113
-0.038672205 0.0332589 0.48257345 3021080
-0.03772876 0.033326257 0.48357335 2889242
-0.036781162 0.033393651 0.48457325 2822935
-0.035838634 0.033469707 0.4856981 3086107
-0.15357144 0.034376081 0.47619912 2432273
-0.15268728 0.034403622 0.47669908 1708298
-0.15172206 0.034413189 0.47694904 1707784
-0.15067737 0.034404792 0.47694904 1904393
-0.14963327 0.03439647 0.47694904 2101259
-0.14851192 0.034370191 0.47669908 2428939
-0.14758559 0.034389053 0.47707403 2625804
-0.14665817 0.034407977 0.477449 2754824
-0.14576785 0.034435965 0.47794893 2754824
-0.14480022 0.034446009 0.47819892 2689544
-0.14386964 0.034465116 0.47857386 2624521
-0.14290069 0.034475286 0.47882384 2492935
-0.14189418 0.034476526 0.47894883 2492935
-0.14092442 0.03448683 0.47919881 2165253
-0.13988116 0.034479208 0.47919881 1968901
-0.13887465 0.034480654 0.4793238 1574915
-0.13786815 0.03448217 0.47944877 1509122
-0.13679028 0.034465779 0.4793238 1378049
-0.13574886 0.034458451 0.4793238 1181442
-0.13453232 0.034406275 0.47869885 1181956
-0.13324928 0.03433622 0.47782394 1313542
-0.13169388 0.034194432 0.47594914 2100487
-0.12994127 0.033998899 0.47332445 2558728
-0.12847282 0.033875328 0.4716996 2689798
-0.12728208 0.033823662 0.47107467 2755078
-0.1262285 0.033807971 0.47094968 2755078
-0.12524237 0.033810291 0.47107467 2754308
-0.12428913 0.03382165 0.47132465 2951687
-0.12330259 0.033824097 0.47144964 2951687
-0.12234835 0.033835575 0.4716996 2820101
-0.1213292 0.033829182 0.4716996 2754308
-0.1204061 0.03384975 0.47207457 2820101
-0.11954504 0.033888295 0.47269949 2820101
-0.11874438 0.033944797 0.4735744 2688515
-0.11797143 0.03401031 0.4745743 2557699
-0.11722542 0.034084816 0.47569919 2557699
-0.11644442 0.03415041 0.47669908 2492419
-0.11565951 0.034216035 0.47769895 2295810
-0.1148707 0.034281705 0.47869885 2230276
-0.11401854 0.034329519 0.47944877 1967874
-0.113193 0.034386322 0.48032367 1705729
-0.11242246 0.03446107 0.48144856 1705729
-0.1117053 0.034553744 0.48282343 1574915
-0.11095396 0.034637507 0.48407328 1443842
-0.11005573 0.034676593 0.48469821 1247233
-0.10904275 0.034679975 0.4848232 1050370
-0.10763981 0.034558274 0.48319837 1378821
-0.1065475 0.03453498 0.48294839 1967876
-0.10548396 0.034520697 0.48282343 2165255
-0.10507019 0.034720913 0.4856981 2230278
-0.097399205 0.033838168 0.47369939 2361603
-0.095927343 0.033672661 0.47144964 2295810
-0.094465412 0.033507269 0.46919987 2295556
-0.092216738 0.033056393 0.46295053 2361349
-0.090610832 0.032828785 0.45982587 2623492
-0.089310899 0.032708354 0.45820105 3410439
-0.088259146 0.032677229 0.45782608 3345416
-0.087209299 0.032646168 0.45745113 3475973
-0.086208425 0.032633003 0.45732614 3606789
-0.085254945 0.032637734 0.45745113 3606789
-0.084278181 0.032633603 0.45745113 3672582
-0.08332444 0.032638449 0.45757613 3672582
-0.082392894 0.032652255 0.45782608 3475203
-0.081482783 0.032675032 0.45820105 3606789
-0.080571316 0.032697856 0.45857602 3475203
-0.079701886 0.032738559 0.45920095 3475203
-0.078808576 0.03277038 0.45970088 3475203
-0.077934571 0.032811176 0.46032581 3475973
-0.077079013 0.03286092 0.46107575 3475973
-0.076241113 0.032919612 0.46195066 3541766
-0.075440452 0.032996159 0.46307552 3278594
-0.074635215 0.03307274 0.46420041 3344387
-0.073805578 0.033140466 0.4652003 3476486
-0.072971903 0.033208217 0.4662002 3542279
-0.07209558 0.033258211 0.46695012 3542279
-0.07117822 0.03329045 0.46745005 3279877
-0.070240155 0.033313826 0.46782503 3148291
-0.069282226 0.033328366 0.46807501 2558210
-0.068378121 0.033369645 0.46869993 1770496
-0.067507498 0.03342877 0.46957484 1181440
-0.066651039 0.033496834 0.47057474 1247233
-0.06584283 0.033591628 0.47194958 1247233
-0.065080471 0.03371314 0.47369939 1443844
-0.06426017 0.033808008 0.47507423 1574917
-0.06340088 0.033885114 0.47619912 1968392
-0.062487893 0.033935595 0.47694904 2296071
-0.06153968 0.033968337 0.477449 2557958
-0.06057366 0.033992227 0.47782394 3082759
-0.059590615 0.034007277 0.47807392 3083273
-0.058591377 0.034013495 0.47819892 3016453
-0.057591751 0.034019757 0.47832391 3410441
-0.056591753 0.034026079 0.4784489 3213062
-0.055576853 0.034023557 0.4784489 3476234
-0.054562114 0.034021102 0.4784489 3476234
-0.053561486 0.034027573 0.47857386 3542025
-0.052546766 0.034025215 0.47857386 3673611
-0.05154562 0.034031793 0.47869885 3476232
-0.050530907 0.034029547 0.47869885 3476232
-0.049529232 0.034036238 0.47882384 3542025
-0.048539825 0.03405185 0.47907382 3607305
-0.047549479 0.034067526 0.4793238 3738121
-0.046582453 0.034101009 0.47982374 3934986
-0.045589693 0.034116779 0.48007372 3869193
-0.044630807 0.034159251 0.48069865 3869193
-0.043635357 0.034175117 0.48094863 3803914
-0.042661112 0.034208804 0.48144856 3673098
-0.041663211 0.034224771 0.48169854 5518130
-0.040706549 0.03427631 0.48244846 5592653
-0.039757088 0.034336776 0.48332337 5921621
-0.03886411 0.034450561 0.48494819 6316381
-0.15390258 0.035471443 0.47719902 2170130
-0.15285604 0.0354627 0.47719902 1971981
-0.15177032 0.035444751 0.47707403 1774089
-0.1506858 0.035426877 0.47694904 1904391
-0.14964168 0.035418384 0.47694904 2166282
-0.14863704 0.035419233 0.47707403 2559241
-0.14767115 0.03542944 0.47732401 2756620
-0.14674312 0.035448983 0.47769895 2886923
-0.14585218 0.035477862 0.47819892 2755591
-0.14492178 0.035497531 0.47857386 2689798
-0.14395273 0.035507992 0.47882384 2493189
-0.14294589 0.03550927 0.47894883 2558982
-0.14197606 0.035519868 0.47919881 2427909
-0.14093216 0.035512015 0.47919881 2165507
-0.13988884 0.035504229 0.47919881 1968388
-0.13888223 0.035505779 0.4793238 1640706
-0.13783972 0.035498146 0.4793238 1443842
-0.13672636 0.03547208 0.47907382 1247233
-0.13554379 0.035427578 0.47857386 1116161
-0.13422346 0.035346176 0.47757399 1510919
-0.13266395 0.035200134 0.47569919 1510919
-0.13097472 0.035017233 0.47332445 2362632
-0.12950218 0.034889936 0.4716996 2624775
-0.12827547 0.034827467 0.47094968 2689798
-0.12718756 0.034802057 0.47069973 2952455
-0.12616825 0.034795199 0.47069973 3149064
-0.1251826 0.034797657 0.47082469 3083271
-0.12422983 0.034809403 0.47107467 3083271
-0.12327644 0.034821216 0.47132465 2951685
-0.12229001 0.034823865 0.47144964 2820099
-0.1213356 0.034835801 0.4716996 2820101
-0.12038056 0.034847803 0.47194958 2820101
-0.11951973 0.034887549 0.4725745 2885894
-0.11871929 0.034945797 0.47344941 2820101
-0.11794656 0.035013311 0.47444931 2820101
-0.11716994 0.035080869 0.4754492 2623492
-0.11632837 0.035130024 0.47619912 2426626
-0.11551423 0.035188448 0.47707403 2361603
-0.11469671 0.035246912 0.47794893 2165507
-0.11387584 0.035305422 0.47882384 1836802
-0.11308105 0.0353732 0.47982374 1639936
-0.1123699 0.035468649 0.48119858 1509120
-0.11147973 0.035508875 0.48182353 1312256
-0.11093103 0.035659656 0.48394829 1312256
-0.10989109 0.035653915 0.48394829 1247233
-0.10840177 0.035500947 0.48194852 1509635
-0.10664292 0.035256028 0.47869885 2361349
-0.1050087 0.035048064 0.47594914 2492165
-0.10434239 0.035162318 0.47757399 2492165
-0.098470509 0.034869604 0.47394937 2557445
-0.097044304 0.034717515 0.47194958 2361603
-0.095881298 0.03465746 0.47119966 2295810
-0.094168171 0.034395266 0.46770003 2295810
-0.092221342 0.0340413 0.46295053 2361603
-0.090516828 0.033770192 0.45932594 2689285
-0.089242235 0.033655405 0.45782608 3411209
-0.088167138 0.033614207 0.45732614 3476486
-0.08714211 0.033591446 0.45707616 3607559
-0.086141989 0.033577934 0.45695117 3738375
-0.085189238 0.033582844 0.45707616 3606789
-0.084236264 0.033587821 0.45720115 3738375
-0.083282992 0.033592846 0.45732614 3606789
-0.082351945 0.03360711 0.45757613 3409410
-0.081442304 0.033630606 0.45795107 3606789
-0.080531321 0.03365415 0.45832604 3606789
-0.079640664 0.033686921 0.45882598 3475203
-0.07876955 0.033728916 0.4594509 3606789
-0.077896014 0.033770956 0.46007586 3344387
-0.077040955 0.03382222 0.46082577 3344387
-0.076224163 0.033891872 0.46182567 3673352
-0.075423703 0.033970736 0.46295053 3344387
-0.074638791 0.034058806 0.46420041 3278594
-0.073848769 0.034146916 0.46545029 3410693
-0.07301452 0.034216728 0.46645015 3279107
-0.072118312 0.034259073 0.46707511 3279877
-0.071181588 0.034283131 0.46745005 3082498
-0.070224732 0.034298085 0.46770003 2754306
-0.069267005 0.03431309 0.46795002 2361603
-0.068344861 0.034346469 0.46844995 1770496
-0.067492694 0.034416545 0.46944985 1181442
-0.066636458 0.034486674 0.47044975 1181442
-0.06582848 0.034584325 0.47182459 1247235
-0.065049171 0.03470033 0.47344941 1378051
-0.064246237 0.034807216 0.47494927 1574917
-0.063387193 0.034886658 0.47607413 1836804
-0.062474407 0.034938671 0.47682405 2296071
-0.061526392 0.034972407 0.47732401 2557958
-0.060560588 0.03499705 0.47769895 2820101
-0.059562184 0.035003416 0.47782394 3016966
-0.058578726 0.035019003 0.47807392 3082246
-0.057579327 0.035025485 0.47819892 3410441
-0.056579538 0.035032019 0.47832391 3410441
-0.055579375 0.035038605 0.4784489 3542027
-0.054550327 0.035026941 0.47832391 3739406
-0.053549916 0.035033636 0.4784489 3476232
-0.052535396 0.035031233 0.4784489 3410439
-0.051521007 0.035028882 0.4784489 3804684
-0.05051994 0.035035729 0.47857386 3673098
-0.049518492 0.035042647 0.47869885 3738121
-0.048516635 0.035049606 0.47882384 3869193
-0.047526766 0.03506577 0.47907382 4000266
-0.046560224 0.035100278 0.47957376 4066059
-0.04557981 0.035125688 0.47994873 3934727
-0.044655949 0.035196882 0.48094863 3934727
-0.043705288 0.035249837 0.48169854 3935240
-0.042751543 0.035302829 0.48244846 3738891
-0.041783921 0.035346728 0.48307338 4729129
-0.040887564 0.035454687 0.48457325 6444628
-0.15443552 0.036619071 0.47882384 2170645
-0.15302499 0.036524106 0.47769895 1906958
-0.15189835 0.036496144 0.477449 1577993
-0.15077342 0.036468264 0.47719902 1773575
-0.14972866 0.036459573 0.47719902 1969671
-0.14876235 0.036470056 0.477449 2625804
-0.14779556 0.036480609 0.47769895 2756620
-0.14682823 0.036491234 0.47794893 2822154
-0.14593668 0.036521014 0.4784489 2887177
-0.14496784 0.036531772 0.47869885 2689798
-0.14399846 0.036542602 0.47894883 2427396
-0.14302853 0.036553491 0.47919881 2297093
-0.14198402 0.036545396 0.47919881 2231300
-0.14094006 0.036537368 0.47919881 1903108
-0.13989666 0.036529429 0.47919881 1640706
-0.13885377 0.036521554 0.47919881 1509635
-0.13773955 0.036494717 0.47894883 1313026
-0.1365556 0.036448911 0.4784489 1116674
-0.13519733 0.036355603 0.47732401 1248260
-0.13363369 0.036205303 0.4754492 1643018
-0.13190436 0.036007546 0.47294948 2034181
-0.13049772 0.035895579 0.47157463 2297093
-0.12923478 0.035821766 0.47069973 2558982
-0.12814634 0.035795603 0.47044975 2689798
-0.12712699 0.035788532 0.47044975 2885892
-0.12614164 0.035791043 0.47057474 3083271
-0.12515619 0.035793625 0.47069973 2951685
-0.12420362 0.035805769 0.47094968 3280136
-0.12321772 0.035808478 0.47107467 3082757
-0.12229662 0.035830256 0.47144964 2951171
-0.12134215 0.035842594 0.4716996 2951171
-0.12041893 0.03586448 0.47207457 2951171
-0.11952615 0.035895936 0.4725745 2885380
-0.11869432 0.035946421 0.47332445 2951173
-0.11789074 0.036006454 0.47419935 2885380
-0.117053 0.03605704 0.47494927 2557699
-0.11618188 0.036098186 0.4755742 2492419
-0.1153388 0.036148876 0.47632411 2296323
-0.11449284 0.036199607 0.47707403 2099714
-0.11367379 0.036259875 0.47794893 1836802
-0.11282191 0.036310703 0.47869885 1639936
-0.11211314 0.036408983 0.48007372 1574144
-0.11136991 0.036497813 0.48132357 1312256
-0.11030654 0.036482442 0.48119858 1378049
-0.1092157 0.036457684 0.48094863 1574913
-0.10750777 0.036224578 0.47794893 2231046
-0.10584097 0.036001083 0.47507423 2689031
-0.10449021 0.035881892 0.4735744 2623238
-0.10355587 0.035904836 0.47394937 2754054
-0.10259321 0.035918362 0.47419935 2754054
-0.10200465 0.036064476 0.47619912 2754054
-0.10095728 0.036049716 0.47607413 2754054
-0.09949097 0.035883609 0.47394937 2885380
-0.098215878 0.035783846 0.47269949 2885894
-0.097049266 0.035722014 0.47194958 2557699
-0.095835328 0.03564135 0.47094968 2557699
-0.094323978 0.035447273 0.46844995 2491906
-0.092201136 0.035016902 0.46282557 2623492
-0.09037362 0.034690715 0.45857602 3016966
-0.089173675 0.034601022 0.45745113 3345416
-0.088099308 0.034558669 0.45695117 3476486
-0.087098859 0.034544747 0.45682621 3738375
-0.086099207 0.034530882 0.45670122 3738375
-0.085146956 0.034535978 0.45682621 3672582
-0.084194429 0.034541138 0.45695117 3672582
-0.083241642 0.034546345 0.45707616 3738375
-0.082311071 0.03456106 0.45732614 3672582
-0.081401907 0.034585267 0.45770112 3606789
-0.080491394 0.034609534 0.45807606 3672582
-0.079579532 0.034633849 0.45845103 3606789
-0.078730583 0.034686536 0.45920095 3672582
-0.077857539 0.034729838 0.45982587 3541766
-0.077023841 0.034792058 0.46070078 3475973
-0.07620728 0.034863759 0.46170068 3475973
-0.075427406 0.034954369 0.46295053 3279107
-0.074662544 0.035054471 0.4643254 3410693
-0.073872194 0.035145156 0.46557525 3476486
-0.073057197 0.035226457 0.46670014 3410693
-0.072141126 0.035260633 0.4672001 3083011
-0.07122311 0.035294849 0.46770003 3016964
-0.070265658 0.035310261 0.46795002 2820099
-0.069270343 0.03530686 0.46795002 2098690
-0.068348162 0.03534124 0.46844995 1574145
-0.067495927 0.035413373 0.46944985 1181442
-0.066639654 0.035485569 0.47044975 1181442
-0.065849058 0.035595499 0.47194958 1313028
-0.065069437 0.035714895 0.4735744 1509637
-0.064249292 0.035815474 0.47494927 1509124
-0.063390188 0.035897255 0.47607413 2099462
-0.062477358 0.035950795 0.47682405 2361349
-0.061513182 0.035976119 0.47719902 2623238
-0.060547572 0.036001489 0.47757399 2689285
-0.059564967 0.0360175 0.47782394 2885894
-0.058566138 0.036024135 0.47794893 3016453
-0.057566945 0.036030833 0.47807392 3278855
-0.056567375 0.036037583 0.47819892 3213062
-0.055567414 0.036044385 0.47832391 3410439
-0.054552823 0.036041826 0.47832391 3542025
-0.053538382 0.036039323 0.47832391 3410439
-0.052524067 0.036036875 0.47832391 3541512
-0.05152335 0.036043897 0.4784489 4002063
-0.05050905 0.036041558 0.4784489 3803914
-0.049494881 0.036039278 0.4784489 3803400
-0.048506156 0.036055874 0.47869885 4000266
-0.047504101 0.036063112 0.47882384 3934473
-0.04651377 0.03607982 0.47907382 4197129
-0.045558099 0.036124811 0.47969875 4197129
-0.044820406 0.036348678 0.48269844 4197129
-0.15347442 0.037656613 0.47907382 2237208
-0.15214585 0.037578788 0.47819892 1775885
-0.1510192 0.037550181 0.47794893 1840395
-0.14989428 0.037521664 0.47769895 1970186
-0.14884892 0.037512861 0.47769895 2494732
-0.14795883 0.037543397 0.47819892 2756874
-0.14695196 0.03754456 0.47832391 2822154
-0.14602138 0.037565414 0.47869885 3018763
-0.1450519 0.037576526 0.47894883 2558982
-0.14408191 0.037587721 0.47919881 2362116
-0.14307405 0.037589174 0.4793238 2297093
-0.14195512 0.037561301 0.47907382 2166021
-0.14098491 0.037572719 0.4793238 1838087
-0.13990465 0.037554808 0.47919881 1772294
-0.13878927 0.037527185 0.47894883 1444612
-0.13756765 0.037470281 0.47832391 1379846
-0.1362066 0.037374314 0.47719902 1249030
-0.13460314 0.037209962 0.47519922 1446409
-0.13286833 0.037006598 0.47269949 1708809
-0.13138892 0.036871877 0.47107467 2100487
-0.13019376 0.036815528 0.47044975 2099974
-0.12910473 0.036788609 0.47019976 2361862
-0.12808542 0.036781333 0.47019976 2493189
-0.12706652 0.036774114 0.47019976 2689285
-0.12611516 0.03678653 0.47044975 2885892
-0.12512992 0.036789238 0.47057474 2951685
-0.12417755 0.03680177 0.47082469 3280136
-0.12319189 0.036804616 0.47094968 3280136
-0.12227097 0.036827061 0.47132465 3214343
-0.12134886 0.036849562 0.4716996 2951171
-0.12042557 0.036872119 0.47207457 2885380
-0.11956434 0.036914267 0.47269949 2885380
-0.11870082 0.036956463 0.47332445 2885380
-0.1178661 0.037008468 0.47407436 3016966
-0.11699776 0.037050772 0.47469929 2689285
-0.11609661 0.037083369 0.47519922 2492419
-0.11519371 0.037116028 0.47569919 2230530
-0.11431906 0.037158497 0.47632411 1902081
-0.11344213 0.037201025 0.47694904 1902081
-0.11259232 0.037253335 0.47769895 1771009
-0.11176889 0.037315451 0.47857386 1639938
-0.11076854 0.037319154 0.47869885 1509122
-0.10976806 0.03732292 0.47882384 1574915
-0.10834163 0.03718064 0.47707403 2295556
-0.10681064 0.036999512 0.47482428 2819847
-0.10548459 0.036886673 0.47344941 3082759
-0.10438545 0.036851827 0.47307447 2951171
-0.10334286 0.036836516 0.47294948 2951171
-0.10232822 0.036831018 0.47294948 3016451
-0.10150133 0.036893714 0.47382438 3016451
-0.10043246 0.036868863 0.4735744 3082244
-0.099233814 0.036795456 0.47269949 2951173
-0.098117158 0.036751315 0.47219956 3016966
-0.097054347 0.036726691 0.47194958 2951173
-0.095916636 0.036672968 0.47132465 2885380
-0.094379239 0.036463749 0.46869993 2688515
-0.092081435 0.035953254 0.46220061 2754308
-0.090205878 0.035598494 0.45770112 3148039
-0.089056462 0.035525762 0.45682621 3542025
-0.08805567 0.035511423 0.45670122 3475719
-0.087055676 0.03549714 0.45657623 3672582
-0.086056516 0.035482932 0.45645124 3869961
-0.085104734 0.035488207 0.45657623 3672582
-0.084152684 0.035493542 0.45670122 3672582
-0.083223134 0.035508651 0.45695117 3672582
-0.082292765 0.035523817 0.45720115 3672582
-0.081361592 0.035539038 0.45745113 3606789
-0.080451556 0.035564013 0.45782608 3606789
-0.079561852 0.035598762 0.45832604 3672582
-0.078691699 0.035643257 0.45895097 3475973
-0.077840291 0.035697516 0.45970088 3475973
-0.076985911 0.035751812 0.4604508 3212801
-0.076190464 0.035835277 0.46157569 3279107
-0.075431168 0.035938174 0.46295053 3279107
-0.074686356 0.036050819 0.46445039 3279107
-0.073935367 0.036163494 0.46595022 3410693
-0.073119529 0.036247112 0.46707511 3410693
-0.072221875 0.036291964 0.46770003 3083011
-0.071264684 0.036307782 0.46795002 2820099
-0.070269108 0.036304262 0.46795002 2492417
-0.069310732 0.036320191 0.46819997 1639938
-0.068460926 0.036394343 0.46919987 1181442
-0.06749922 0.036410376 0.46944985 1181442
-0.0666783 0.036504008 0.47069973 1181442
-0.065887131 0.036617063 0.47219956 1247235
-0.065124102 0.036749534 0.47394937 1575430
-0.06428621 0.036843289 0.47519922 1574917
-0.06340988 0.036917698 0.47619912 2165255
-0.062496733 0.036972776 0.47694904 2361349
-0.061532244 0.036998838 0.47732401 2492165
-0.060566321 0.037024949 0.47769895 2754054
-0.059567805 0.037031747 0.47782394 2820101
-0.058568925 0.037038598 0.47794893 3082246
-0.057569668 0.037045501 0.47807392 3148039
-0.056570042 0.037052471 0.47819892 3213062
-0.055570029 0.037059486 0.47832391 3344135
-0.054555386 0.037056882 0.47832391 3344133
-0.053540871 0.037054323 0.47832391 3344133
-0.052540246 0.037061516 0.4784489 3344133
-0.051525749 0.037059076 0.4784489 3606535
-0.050511379 0.037056688 0.4784489 3869707
-0.049497146 0.037054356 0.4784489 3869707
-0.048495717 0.037061773 0.47857386 3934986
-0.047493868 0.037069235 0.47869885 4066313
-0.046491612 0.037076756 0.47882384 4329485
-0.045560159 0.037142385 0.47969875 4394508
-0.15310943 0.038846467 0.48119858 2104852
-0.15150215 0.038696021 0.47944877 1841680
-0.15021695 0.038626418 0.47869885 2035977
-0.14913039 0.03860734 0.47857386 2428939
-0.14804496 0.038588349 0.4784489 2757390
-0.14707585 0.03859967 0.47869885 2822154
-0.14614438 0.03862115 0.47907382 2822154
-0.145174 0.038632616 0.4793238 2624521
-0.14412796 0.038624026 0.4793238 2427655
-0.14308247 0.038615506 0.4793238 2362632
-0.14203754 0.038607072 0.4793238 2165253
-0.14095636 0.038588643 0.47919881 1968901
-0.13980332 0.038550183 0.47882384 1838598
-0.13861625 0.038501754 0.47832391 1774089
-0.13725211 0.038403124 0.47719902 1709063
-0.13560796 0.038224157 0.47507423 1512967
-0.13383198 0.038005129 0.47244954 1512967
-0.13231385 0.037856631 0.47069973 1775626
-0.1310827 0.037788659 0.46994978 2166534
-0.13006286 0.037781082 0.46994978 2100741
-0.12900917 0.03776354 0.46982482 2165507
-0.12802462 0.037766155 0.46994978 2427909
-0.12704001 0.037768848 0.47007477 2755591
-0.12605533 0.037771616 0.47019976 2887177
-0.1251038 0.037784491 0.47044975 3083271
-0.12415163 0.037797425 0.47069973 3083271
-0.12319884 0.037810426 0.47094968 3280136
-0.12227786 0.03783353 0.47132465 3082757
-0.12135569 0.037856694 0.4716996 3016964
-0.12046422 0.037889957 0.47219956 3082759
-0.11957103 0.037923265 0.47269949 3214343
-0.11870743 0.037966665 0.47332445 3016964
-0.11784159 0.03801012 0.47394937 2885892
-0.11697347 0.038053628 0.4745743 2623492
-0.116042 0.038077153 0.47494927 2492419
-0.1151093 0.038100734 0.47532421 2230530
-0.11417539 0.038124379 0.47569919 1902081
-0.11327 0.038158104 0.47619912 1705216
-0.11236286 0.038191885 0.47669908 1705729
-0.11136634 0.038195681 0.47682405 1639938
-0.11039863 0.038209565 0.47707403 1705731
-0.10917232 0.038133428 0.47619912 2034181
-0.10780822 0.038007349 0.47469929 2952457
-0.10645094 0.037881374 0.47319946 3278853
-0.10529539 0.037825532 0.4725745 3410693
-0.10425321 0.037809793 0.47244954 3410693
-0.10323922 0.037804123 0.47244954 3475973
-0.10222557 0.037798513 0.47244954 3344387
-0.10121227 0.037792984 0.47244954 3278594
-0.1002258 0.037797511 0.4725745 3213060
-0.099134177 0.03776212 0.47219956 3213060
-0.09807045 0.037736796 0.47194958 3213060
-0.096982419 0.037701558 0.47157463 3278853
-0.095947176 0.037686374 0.47144964 2951171
-0.094409399 0.037471462 0.46882492 2885378
-0.091862187 0.036847148 0.46107575 3016964
-0.09003821 0.036502708 0.45682621 3148037
-0.088988073 0.036467973 0.45645124 3475719
-0.087988004 0.036453281 0.45632625 3738121
-0.087012589 0.036448635 0.45632625 3738375
-0.086013883 0.036434069 0.45620126 3935754
-0.085062578 0.036439531 0.45632625 3869961
-0.084111005 0.036445048 0.45645124 3672582
-0.083181933 0.036460608 0.45670122 3672582
-0.082252041 0.036476217 0.45695117 3672582
-0.081321329 0.03649189 0.45720115 3606789
-0.080411784 0.036517594 0.45757613 3475203
-0.079544254 0.036563292 0.45820105 3475203
-0.078674316 0.036609042 0.45882598 3475973
-0.077823125 0.036664821 0.45957589 3213314
-0.076989852 0.03673061 0.4604508 3147267
-0.076194353 0.036816377 0.46157569 3148037
-0.075455382 0.036932107 0.46307552 3082244
-0.074730359 0.037057836 0.46470034 3082244
-0.073998615 0.037183587 0.46632519 3148037
-0.07322105 0.037289444 0.46770003 3082244
-0.072322033 0.03733556 0.46832496 2820099
-0.071534775 0.037441503 0.46969983 2623490
-0.070497878 0.037417974 0.46944985 2296323
-0.069499239 0.037414432 0.46944985 1313028
-0.068464339 0.037391026 0.46919987 1115395
-0.067718245 0.03752704 0.47094968 1181442
-0.066805564 0.037573468 0.47157463 1247235
-0.066029914 0.037699588 0.47319946 1247235
-0.065247551 0.037825756 0.47482428 1574917
-0.064390831 0.037912138 0.47594914 1640710
-0.06346292 0.037958741 0.47657409 1903110
-0.062499795 0.037985489 0.47694904 2361349
-0.061551355 0.038022242 0.477449 2492165
-0.06056926 0.038039148 0.47769895 2754054
-0.059586275 0.038056102 0.47794893 2885640
-0.058587071 0.038063165 0.47807392 3082759
-0.057587489 0.03807028 0.47819892 3082246
-0.056572754 0.038067508 0.47819892 3278342
-0.055572696 0.03807475 0.47832391 3344135
-0.054557983 0.038072083 0.47832391 3344135
-0.053557415 0.038079437 0.4784489 3344133
-0.052542735 0.0380769 0.4784489 3475719
-0.051528171 0.038074408 0.4784489 3738121
-0.050513763 0.038071983 0.4784489 3738121
-0.049499478 0.03806961 0.4784489 3869707
-0.048485309 0.038067292 0.4784489 4067340
-0.047483671 0.038074981 0.47857386 4066826
-0.046493758 0.038092669 0.47882384 4066313
-0.045574136 0.038170069 0.47982374 4066313
-0.15101056 0.039859891 0.48119858 2037263
-0.14952894 0.039736811 0.47982374 2364944
-0.14840201 0.039706994 0.47957376 2496017
-0.14731517 0.039687626 0.47944877 2626833
-0.14630572 0.039689023 0.47957376 2625804
-0.14529631 0.039690506 0.47969875 2625804
-0.14424936 0.039681733 0.47969875 2560011
-0.14320295 0.039673034 0.47969875 2428425
-0.14200898 0.039623085 0.47919881 2297353
-0.14089124 0.039593898 0.47894883 2232073
-0.13973865 0.039554466 0.47857386 2430735
-0.13837087 0.039453167 0.477449 2038026
-0.136685 0.039259054 0.47519922 1776137
-0.13479538 0.039003156 0.47219956 1250563
-0.13327335 0.038850646 0.47044975 1643270
-0.13204056 0.038780853 0.46969983 2563857
-0.13098581 0.038762726 0.46957484 2233095
-0.12996669 0.038755003 0.46957484 2034946
-0.12898238 0.038757674 0.46969983 2231300
-0.12799805 0.038760427 0.46982482 2362886
-0.12701362 0.038763229 0.46994978 2624775
-0.12606265 0.038776431 0.47019976 2887177
-0.12511101 0.038789686 0.47044975 2951687
-0.1241588 0.038803026 0.47069973 3083271
-0.12320594 0.038816422 0.47094968 3082757
-0.12228488 0.038840182 0.47132465 3016964
-0.12136265 0.038864017 0.4716996 3214343
-0.12047113 0.038898204 0.47219956 3214343
-0.11957786 0.038932454 0.47269949 3214343
-0.11871421 0.03897706 0.47332445 2754306
-0.11784831 0.039021712 0.47394937 2623490
-0.1169493 0.039056137 0.47444931 2492417
-0.11598749 0.039070044 0.47469929 2492419
-0.11502501 0.039084021 0.47494927 2098690
-0.11409184 0.039108347 0.47532421 1771009
-0.11312772 0.039122451 0.4755742 1705729
-0.11213347 0.039126348 0.47569919 1705731
-0.11110985 0.039120018 0.47569919 1705731
-0.1100577 0.039103493 0.4755742 1903110
-0.10880587 0.039015114 0.4745743 2557699
-0.10750195 0.038906291 0.47332445 3082759
-0.10628813 0.038828384 0.47244954 3279107
-0.10518981 0.038791653 0.47207457 3475973
-0.10414863 0.038775537 0.47194958 3541766
-0.10313565 0.038769763 0.47194958 3541766
-0.10212301 0.038764052 0.47194958 3607559
-0.1011107 0.038758412 0.47194958 3475973
-0.10007224 0.038742591 0.47182459 3475973
-0.099060871 0.038737085 0.47182459 3344387
-0.098023854 0.038721398 0.4716996 3344387
-0.096961997 0.038695522 0.47144964 3279107
-0.095952399 0.038690228 0.47144964 3082498
-0.094414517 0.038469627 0.46882492 2951171
-0.091667943 0.037746686 0.46007586 2951171
-0.089919887 0.037423868 0.45620126 3410439
-0.0889441 0.037419006 0.45620126 3738121
-0.087944523 0.037403964 0.45607626 3869961
-0.08694575 0.037388984 0.4559513 3935754
-0.085971355 0.037384316 0.4559513 3935754
-0.085043803 0.037400197 0.45620126 3935754
-0.084092446 0.037405897 0.45632625 3738375
-0.083140805 0.03741166 0.45645124 3804168
-0.082211405 0.037427731 0.45670122 3672582
-0.081303403 0.037454098 0.45707616 3606789
-0.080416024 0.037490759 0.45757613 3606789
-0.079526737 0.037527464 0.45807606 3344387
-0.078678437 0.037584707 0.45882598 3279107
-0.077827193 0.037641998 0.45957589 3213060
-0.076993875 0.037709575 0.4604508 3148037
-0.07619831 0.03779766 0.46157569 3082244
-0.075459309 0.0379165 0.46307552 3148037
-0.074754313 0.038055833 0.46482533 3148037
-0.074061938 0.038205434 0.46670014 2951685
-0.073361814 0.038355067 0.46857494 2689283
-0.072499461 0.038422886 0.46944985 2623490
-0.071919158 0.038644187 0.47219956 2296323
-0.070895649 0.038630266 0.47207457 2034694
-0.069872878 0.038616415 0.47194958 1248260
-0.068832591 0.038592398 0.4716996 984836
-0.067793578 0.038568445 0.47144964 1115909
-0.067021415 0.038697913 0.47307447 1115909
-0.066207655 0.038806979 0.47444931 1246981
-0.065371066 0.038905863 0.47569919 1639940
-0.064461701 0.038963899 0.4764491 1771526
-0.063516036 0.039001551 0.47694904 1968390
-0.062535666 0.039018814 0.47719902 2427142
-0.061570533 0.039046355 0.47757399 2623751
-0.060588107 0.039063726 0.47782394 2754054
-0.059589226 0.039070942 0.47794893 2819847
-0.058605276 0.039088432 0.47819892 3016712
-0.057590324 0.039085545 0.47819892 3016966
-0.056590315 0.039092939 0.47832391 3278855
-0.055589925 0.03910039 0.4784489 3410441
-0.054574903 0.039097682 0.4784489 3410441
-0.053560011 0.039095029 0.4784489 3476234
