# .PCD v0.7 - Point Cloud Data file format
VERSION 0.7
FIELDS x y z rgba
SIZE 4 4 4 4
TYPE F F F U
COUNT 1 1 1 1
WIDTH 1100
HEIGHT 1
VIEWPOINT 0 0 0 1 0 0 0
POINTS 1100
DATA ascii
0.017902615 0.0093347188 0.35133746 6297365
0.01863943 0.0093319993 0.35121247 6823709
0.01938959 0.0093359444 0.35133746 6099986
0.020140355 0.0093399091 0.35146245 6362388
0.020884302 0.009340575 0.35146245 6363415
0.021628326 0.0093412623 0.35146245 5903634
0.022380397 0.009345293 0.35158744 5772048
0.023133075 0.0093493471 0.35171244 6101013
0.023894859 0.0093567427 0.35196239 5837841
0.024666542 0.0093674865 0.35233736 5837841
0.025439909 0.0093782526 0.35271233 6166806
0.026205681 0.009385718 0.35296229 5837841
0.026972609 0.0093932059 0.35321227 5706255
0.027750505 0.0094040418 0.35358724 5706255
0.028540168 0.0094182249 0.35408717 5641491
0.029373409 0.0094457315 0.35508707 6169120
-0.051069926 0.01038604 0.36083645 1512717
-0.050303768 0.010384609 0.36083645 1250313
-0.049417652 0.01035803 0.35996154 1053191
-0.048687417 0.010363844 0.36021152 1053191
-0.047956243 0.010369681 0.3604615 1053191
-0.04728961 0.010389919 0.36121142 1118727
-0.046652108 0.010417365 0.36221132 1250313
-0.046073828 0.010459206 0.36371115 1184520
-0.027286397 0.010320444 0.35971156 3542795
-0.026451968 0.010291059 0.35871169 3476232
-0.025639726 0.010268868 0.35796174 3476232
-0.024822026 0.010243118 0.35708684 3607305
-0.024008075 0.010217393 0.35621193 3935500
-0.023189716 0.010188111 0.35521206 3934986
-0.022359844 0.010151682 0.35396218 4198412
-0.021535305 0.010115283 0.35271233 4066313
-0.020730821 0.010086076 0.35171244 4131336
-0.019959021 0.010071232 0.35121247 4394508
-0.019203046 0.010063577 0.35096252 4328202
-0.018454744 0.010059529 0.35083753 4328202
-0.017707003 0.010055506 0.35071254 4459788
-0.01696587 0.010055086 0.35071254 4525581
-0.016224766 0.010054687 0.35071254 4459788
-0.01547817 0.010050729 0.35058755 4460301
-0.014737381 0.010050374 0.35058755 4657680
-0.014001607 0.010053626 0.35071254 4460301
-0.013265327 0.010056898 0.35083753 4394508
-0.012528535 0.010060192 0.35096252 4263692
-0.01179543 0.010067091 0.35121247 4132106
-0.01106522 0.010077594 0.35158744 4001033
-0.010333434 0.010088118 0.35196239 4066826
-0.0096102916 0.01010941 0.35271233 3935754
-0.0088902712 0.010137887 0.3537122 3738891
-0.0081631551 0.010162803 0.35458711 3739404
-0.007429732 0.010184158 0.35533702 3542797
-0.006697841 0.010212701 0.35633692 3215379
-0.0059596389 0.010237682 0.35721183 5984077
-0.005226844 0.010280594 0.35871169 5591116
0.0083230482 0.01016843 0.3547121 4919565
0.0090313256 0.010122195 0.35308728 5247503
0.0097673908 0.010111813 0.35271233 5904404
0.010505645 0.010105033 0.35246235 6167576
0.011242892 0.010098275 0.35221237 6233369
0.011983386 0.01009512 0.35208738 5837841
0.01272341 0.010091989 0.35196239 5968657
0.013467741 0.010092462 0.35196239 6297620
0.014207088 0.010089375 0.35183743 6034191
0.014945968 0.010086309 0.35171244 5968398
0.015684381 0.010083264 0.35158744 6559765
0.016422331 0.010080239 0.35146245 7283488
0.017165923 0.010080822 0.35146245 7546660
0.017903218 0.010077842 0.35133746 6823707
0.018646687 0.010078466 0.35133746 6297363
0.019390237 0.010079116 0.35133746 6230800
0.020141024 0.010083373 0.35146245 6165007
0.020884989 0.010084065 0.35146245 5902605
0.021636734 0.010088367 0.35158744 5902605
0.022389088 0.01009269 0.35171244 5968655
0.023142055 0.010097036 0.35183743 5903632
0.023912607 0.010108579 0.35221237 5772046
0.024676094 0.010116559 0.35246235 5772046
0.025449747 0.010128149 0.35283729 5837839
0.026225086 0.010139764 0.35321227 5772048
0.026992567 0.010147817 0.35346225 5706255
0.027771015 0.010159479 0.35383719 5706001
0.028561233 0.010174756 0.35433716 5904665
-0.052322507 0.011255984 0.36421108 3618093
-0.051407494 0.011223574 0.36321118 1512717
-0.050531726 0.011198919 0.36246127 1380618
-0.049573496 0.011154992 0.36108643 1249543
-0.048823953 0.011157426 0.36121142 1052164
-0.048074011 0.011159885 0.36133641 1052166
-0.047405493 0.011181667 0.36208633 1183750
-0.046750024 0.011207327 0.36296123 1249543
-0.046170142 0.011252299 0.36446106 1249543
-0.027400902 0.011127409 0.36121142 3542025
-0.026535619 0.011084333 0.35983655 3607818
-0.025720974 0.011060537 0.35908663 3542025
-0.024892183 0.011029067 0.35808674 3541512
-0.024076091 0.011001473 0.35721183 3803914
-0.023255592 0.010970055 0.35621193 3934986
-0.022415688 0.01092712 0.35483709 4066572
-0.021589275 0.010888061 0.35358724 4066313
-0.020760816 0.010845178 0.35221237 4000520
-0.019980831 0.010825414 0.35158744 4263692
-0.019217206 0.01081337 0.35121247 4131336
-0.018468352 0.010809045 0.35108748 4262922
-0.017720062 0.010804746 0.35096252 4460301
-0.016972329 0.010800468 0.35083753 4460301
-0.016225155 0.010796214 0.35071254 4394508
-0.015484057 0.010795829 0.35071254 4460301
-0.014742983 0.010795467 0.35071254 4460301
-0.014011914 0.010802822 0.35096252 4262922
-0.013270355 0.010802504 0.35096252 4066313
-0.01253774 0.010809903 0.35121247 4198412
-0.011799886 0.010813477 0.35133746 4066826
-0.011069389 0.010824769 0.35171244 4001033
-0.010337318 0.010836082 0.35208738 3935754
-0.0096172951 0.010862802 0.35296229 3804684
-0.0088967253 0.010893391 0.35396218 3673611
-0.0081776921 0.010931696 0.35521206 3542797
-0.0074455412 0.010958483 0.35608697 3544342
-0.0067026448 0.010973752 0.3565869 5915972
-0.0059638927 0.011000582 0.35746181 5327944
-0.0052287253 0.01104282 0.35883665 5591116
0.0090444777 0.010884238 0.35358724 4657678
0.0097677754 0.010857687 0.35271233 5379341
0.010509777 0.010854244 0.35258734 5904915
0.01124731 0.010846973 0.35233736 6167574
0.011988091 0.010843573 0.35221237 5706255
0.012728401 0.010840197 0.35208738 5771278
0.013468236 0.010836841 0.35196239 6231829
0.014212649 0.010837357 0.35196239 6428949
0.01495182 0.010834049 0.35183743 6099984
0.015690517 0.010830759 0.35171244 6297363
0.016434597 0.010831344 0.35171244 6362386
0.017172635 0.010828101 0.35158744 6428179
0.017910216 0.01082488 0.35146245 6230800
0.018653976 0.010825531 0.35146245 6033421
0.019397806 0.010826204 0.35146245 5967628
0.020141719 0.010826901 0.35146245 5967628
0.020893134 0.010831471 0.35158744 5836814
0.021645162 0.010836063 0.35171244 5705485
0.022397803 0.01084068 0.35183743 5640462
0.023151062 0.01084532 0.35196239 5640462
0.023913417 0.010853835 0.35221237 5640462
0.024694432 0.01087008 0.35271233 5706255
0.025468633 0.010882494 0.35308728 5772048
0.026244529 0.010894936 0.35346225 5772048
0.027012559 0.010903548 0.3537122 5772048
0.027801367 0.010919892 0.35421216 5903380
0.028612552 0.01094397 0.35496208 6102044
-0.051515162 0.012017589 0.36396113 2035981
-0.050585493 0.011978918 0.36283624 1838087
-0.049729388 0.011956788 0.36221132 1838087
-0.04892676 0.011947062 0.36196133 1707014
-0.048158564 0.011945616 0.36196133 1576198
-0.047488704 0.01196894 0.36271125 1641991
-0.046783589 0.011984037 0.36321118 1707784
-0.046171486 0.012023898 0.36446106 1641991
-0.045429643 0.01203079 0.36471105 1772807
-0.027458539 0.011916098 0.36196133 3542025
-0.026619295 0.011882436 0.36096144 3542025
-0.025775388 0.011844689 0.35983655 3476232
-0.024971047 0.011823426 0.35921162 3541512
-0.024160976 0.011798078 0.35846171 3738121
-0.023337815 0.011764528 0.35746181 3869707
-0.022503134 0.011722778 0.35621193 3869707
-0.021658523 0.011672831 0.3547121 4001033
-0.020820295 0.011622914 0.35321227 3935240
-0.020016866 0.011589475 0.35221237 4066826
-0.019245056 0.011572513 0.35171244 4000520
-0.018481972 0.011559687 0.35133746 4000520
-0.017733127 0.011555109 0.35121247 4262922
-0.016990889 0.01155467 0.35121247 4394508
-0.016242903 0.01155014 0.35108748 4131336
-0.015500988 0.011549746 0.35108748 4000520
-0.014759098 0.011549374 0.35108748 3935240
-0.014017234 0.011549029 0.35108748 3935240
-0.013280116 0.011552814 0.35121247 4001033
-0.012546949 0.011560738 0.35146245 3869961
-0.01180435 0.011560461 0.35146245 3804168
-0.01106963 0.011568428 0.35171244 3738375
-0.010341205 0.01158464 0.35221237 3607305
-0.0096174916 0.011609098 0.35296229 3673611
-0.0089220311 0.011674685 0.35496208 3477517
-0.0082296375 0.011756739 0.35746181 3149582
-0.0074796425 0.01176482 0.35771179 4272176
-0.0067285933 0.011772923 0.35796174 5392456
-0.0059660599 0.011760498 0.3575868 5525325
0.0090480521 0.011636125 0.3537122 4724241
0.0097785592 0.011615963 0.35308728 5117198
0.010513925 0.011604048 0.35271233 5510927
0.011251745 0.011596267 0.35246235 5904402
0.01198856 0.011588509 0.35221237 5970195
0.012733412 0.011589 0.35221237 5706253
0.013473534 0.0115854 0.35208738 6035218
0.014213189 0.011581822 0.35196239 6297363
0.01495769 0.011582382 0.35196239 6297363
0.015696676 0.011578852 0.35183743 6231570
0.016435202 0.011575347 0.35171244 5836812
0.017179368 0.011575975 0.35171244 5902605
0.017923605 0.011576626 0.35171244 6099214
0.018667918 0.011577303 0.35171244 5967628
0.019412303 0.011578004 0.35171244 5836812
0.020156767 0.011578726 0.35171244 5902605
0.020901307 0.011579473 0.35171244 5771278
0.021653624 0.011584358 0.35183743 5706255
0.02240655 0.011589267 0.35196239 5574669
0.023160094 0.0115942 0.35208738 5574669
0.023922747 0.011603274 0.35233736 5640462
0.024704043 0.011620606 0.35283729 5640462
0.025487551 0.011637966 0.35333726 5706255
0.026264003 0.011651234 0.3537122 5706255
0.027042132 0.011664526 0.35408717 5837841
0.027821952 0.011677844 0.35446212 6035220
0.028633691 0.011703546 0.35521206 6101529
-0.052397475 0.012816464 0.36471105 2888208
-0.051392898 0.012757765 0.36308622 2887693
-0.050499909 0.012725452 0.36221132 2756107
-0.049713735 0.012719518 0.36208633 2624521
-0.048894443 0.012704829 0.36171135 2624521
-0.048110131 0.01269895 0.36158636 2624521
-0.047342855 0.012697492 0.36158636 2822413
-0.046833295 0.012766272 0.36358616 2756620
-0.046188697 0.012799958 0.36458606 2493448
-0.045431007 0.012802951 0.36471105 2427655
-0.044642296 0.012797198 0.36458606 2427655
-0.027478268 0.012690517 0.36221132 3477002
-0.026675338 0.012672233 0.36171135 3476232
-0.025838766 0.012636464 0.36071146 3542025
-0.025041247 0.01261824 0.36021152 3541512
-0.024245886 0.012600041 0.35971156 3738121
-0.023403732 0.012555602 0.35846171 3738121
-0.022582702 0.012519947 0.35746181 3803914
-0.021743057 0.012471189 0.35608697 3803914
-0.020909263 0.012422459 0.3547121 3803914
-0.020081328 0.012373759 0.35333726 3869707
-0.01927292 0.01233384 0.35221237 3869707
-0.018521903 0.012328961 0.35208738 3934986
-0.017771451 0.012324111 0.35196239 4000779
-0.017063888 0.012349917 0.35271233 4198412
-0.016330052 0.012358239 0.35296229 4001033
-0.015584151 0.012357833 0.35296229 3804168
-0.014796242 0.012322445 0.35196239 3869961
-0.014042526 0.012313339 0.35171244 3607559
-0.013289883 0.012304257 0.35146245 3541512
-0.012547242 0.01230395 0.35146245 3542025
-0.011813013 0.01231242 0.35171244 3542025
-0.011081676 0.012325283 0.35208738 3345416
-0.010356107 0.012346925 0.35271233 3280138
-0.0096483408 0.01239484 0.35408717 3214859
0.0090676295 0.012410492 0.35446212 4723471
0.0097928243 0.012380274 0.35358724 5117198
0.010525541 0.012363206 0.35308728 5379856
0.011260189 0.012350539 0.35271233 5510159
0.011997556 0.01234227 0.35246235 5772818
0.012733922 0.012334025 0.35221237 6035220
0.013478853 0.012334557 0.35221237 5837839
0.014218793 0.012330737 0.35208738 6034448
0.014958269 0.01232694 0.35196239 6099984
0.015702857 0.012327544 0.35196239 6033421
0.016447509 0.012328172 0.35196239 5967628
0.017186124 0.012324447 0.35183743 5836812
0.017930653 0.012325125 0.35183743 5902605
0.018675253 0.012325827 0.35183743 5902605
0.019419927 0.012326552 0.35183743 6363156
0.020164678 0.012327301 0.35183743 5837069
0.020909509 0.012328075 0.35183743 5705485
0.021662112 0.012333252 0.35196239 5640462
0.022415329 0.012338454 0.35208738 5706001
0.023169162 0.012343682 0.35221237 5575185
0.023932099 0.012353316 0.35246235 5443599
0.024713688 0.012371735 0.35296229 5509392
0.025497494 0.012390185 0.35346225 5640462
0.026283506 0.012408659 0.35396218 5706255
0.027052648 0.012418398 0.35421216 5772048
0.027842572 0.012436927 0.3547121 6101013
0.028675018 0.012473017 0.355712 6102042
-0.052147724 0.013523893 0.36296123 3281168
-0.051323745 0.013508278 0.36258626 3281168
-0.050518908 0.013497347 0.36233628 3215629
-0.049715295 0.013486448 0.36208633 3214859
-0.048929766 0.013480232 0.36196133 3214859
-0.048128258 0.013469391 0.36171135 3149066
-0.04734432 0.013463233 0.36158636 3214859
-0.046593241 0.013466408 0.36171135 3149066
-0.045794256 0.013455653 0.36146137 3083273
-0.02749802 0.013466065 0.36246127 3082759
-0.026703754 0.013451349 0.36208633 3279623
-0.025893226 0.013427373 0.36146137 3476232
-0.025111465 0.013417356 0.36121142 3607818
-0.02429712 0.013388796 0.3604615 3738891
-0.023510475 0.013374188 0.36008653 3607305
-0.022701776 0.013345685 0.35933661 3673098
-0.021881033 0.013307925 0.35833672 3804684
-0.021027721 0.013246987 0.35671189 3738891
-0.020174222 0.013181438 0.35496208 3738891
-0.019348674 0.013129842 0.35358724 3673098
-0.018594725 0.013124686 0.35346225 3803914
-0.017835034 0.013114915 0.35321227 3803914
-0.017185271 0.0131887 0.35521206 3869707
-0.016515523 0.013253227 0.35696188 3803914
-0.015744587 0.013238886 0.3565869 3738121
-0.014072814 0.013085001 0.35246235 3476232
-0.013318564 0.013075384 0.35221237 3410439
-0.012569851 0.013070431 0.35208738 3279623
-0.011830078 0.013074783 0.35221237 3214343
-0.011097661 0.013088438 0.35258734 2951687
-0.010400371 0.013148513 0.35421216 2821902
-0.0096996296 0.01321325 0.35596198 3086873
0.0090712374 0.013164902 0.35458711 4657165
0.0098036416 0.013142128 0.35396218 5050637
0.01054463 0.013133303 0.3537122 5313809
0.011272642 0.013110578 0.35308728 5313550
0.012006572 0.01309716 0.35271233 5510159
0.012743489 0.013088403 0.35246235 5575439
0.013484191 0.013084316 0.35233736 5509646
0.014224422 0.013080251 0.35221237 5575439
0.014969498 0.013080851 0.35221237 5837839
0.015714638 0.013081479 0.35221237 6034448
0.016454004 0.013077487 0.35208738 6166034
0.017199013 0.013078163 0.35208738 6166034
0.017937722 0.013074222 0.35196239 5968398
0.018682612 0.013074948 0.35196239 6034191
0.019427571 0.013075697 0.35196239 5968655
0.020172613 0.013076474 0.35196239 5771276
0.02092516 0.01308192 0.35208738 5705485
0.021670628 0.013082745 0.35208738 5772048
0.022424137 0.013088241 0.35221237 5772564
0.023186482 0.013098408 0.35246235 5772564
0.023958459 0.013113247 0.35283729 5509392
0.02473212 0.013128112 0.35321227 5575185
0.025516475 0.01314765 0.3537122 5707025
0.026293768 0.013162569 0.35408717 5772818
0.027072741 0.013177517 0.35446212 5772818
0.027853414 0.013192493 0.35483709 6035990
0.028686151 0.013230734 0.35583699 6234652
-0.05255603 0.014196171 0.3604615 3476750
-0.051754341 0.014184616 0.36021152 3739922
-0.050989248 0.014182935 0.36021152 3937555
-0.050241709 0.014186202 0.36033651 3542797
-0.04959676 0.014219018 0.36121142 3870992
-0.048829947 0.014217415 0.36121142 4002578
-0.048063286 0.014215845 0.36121142 3870992
-0.047133081 0.014165114 0.35996154 3542027
-0.046288829 0.014139014 0.35933661 3410441
-0.045479007 0.01412278 0.35896164 3607820
-0.044686474 0.014111495 0.35871169 3608590
-0.043879818 0.014095323 0.35833672 3214345
-0.043119993 0.014093933 0.35833672 2820871
-0.042375062 0.014097482 0.35846171 3018250
-0.027517794 0.014242751 0.36271125 2689031
-0.026722971 0.01422722 0.36233628 2951173
-0.025929796 0.014211719 0.36196133 3279625
-0.025146954 0.014201153 0.36171135 3477002
-0.02436522 0.014190615 0.36146137 3542025
-0.023584595 0.014180104 0.36121142 3542025
-0.022797184 0.014164713 0.36083645 3542025
-0.021996137 0.014139539 0.36021152 3673098
-0.021131465 0.014070238 0.35846171 3673098
-0.020288443 0.014010783 0.35696188 3673098
-0.019458637 0.013956264 0.35558701 3738891
-0.018660989 0.013921396 0.3547121 3607305
-0.017955428 0.013955229 0.35558701 3607305
-0.017197823 0.013949848 0.35546201 3738891
-0.01648126 0.013978824 0.35621193 3541512
-0.015767073 0.01401273 0.35708684 3541512
-0.014996668 0.013997615 0.35671189 3476232
-0.014162997 0.013918769 0.3547121 3148037
-0.013370884 0.013874282 0.35358724 3016966
-0.012623702 0.013873961 0.35358724 2951687
-0.011880736 0.01387857 0.3537122 2820871
-0.011156925 0.013907724 0.35446212 2887693
-0.010451979 0.013966328 0.35596198 3481117
-0.0097441114 0.014029857 0.3575868 3549220
0.0090748612 0.013919916 0.3547121 4525579
0.0098248636 0.013920362 0.3547121 4657165
0.010560011 0.013901215 0.35421216 4853772
0.011293094 0.013882092 0.3537122 5050124
0.012024114 0.013862993 0.35321227 5115917
0.012757595 0.013848821 0.35283729 5115917
0.013499116 0.013844489 0.35271233 5444112
0.014235117 0.013835275 0.35246235 5378573
0.014980747 0.013835898 0.35246235 5575439
0.015726442 0.013836545 0.35246235 5837841
0.016466361 0.013832312 0.35233736 6231570
0.017211925 0.013833015 0.35233736 6099984
0.017951189 0.013828833 0.35221237 5968398
0.018696632 0.013829583 0.35221237 5902605
0.019442147 0.013830358 0.35221237 5771276
0.020187741 0.013831162 0.35221237 5771278
0.020933418 0.01383199 0.35221237 5640462
0.021686871 0.013837755 0.35233736 5706255
0.022440933 0.013843544 0.35246235 5772048
0.023203829 0.013854269 0.35271233 5575185
0.023976365 0.013869933 0.35308728 5509392
0.024750585 0.013885621 0.35346225 5641232
0.025535496 0.01390625 0.35396218 5904404
0.026313342 0.013921996 0.35433716 5970197
0.027092878 0.013937772 0.3547121 5772818
0.027874103 0.013953579 0.35508707 5970197
0.028707402 0.013993971 0.35608697 6234398
-0.055487525 0.014931005 0.3595866 3419168
-0.054760993 0.014939508 0.35983655 2954253
-0.054033574 0.014948044 0.36008653 3281422
-0.053157333 0.0149151 0.35933661 4002578
-0.052284423 0.014882193 0.3585867 4002065
-0.051522598 0.014880445 0.3585867 4132879
-0.050760921 0.014878726 0.3585867 4067086
-0.050191086 0.014934072 0.35996154 4066572
-0.049478263 0.014947959 0.36033651 4198158
-0.048628803 0.014920396 0.35971156 4329744
-0.047915176 0.014934339 0.36008653 4198672
-0.047069162 0.014906841 0.35946161 4067086
-0.046209827 0.014874197 0.35871169 3803914
-0.045322131 0.01483122 0.35771179 3803914
-0.044532225 0.014819372 0.35746181 3673098
-0.043774106 0.014817915 0.35746181 3607305
-0.043016113 0.014816489 0.35746181 3411209
-0.042302549 0.014830631 0.35783678 3279623
-0.027575519 0.015041262 0.36346117 2623751
-0.026751429 0.015009398 0.36271125 2689031
-0.025966385 0.014998255 0.36246127 2951687
-0.025182463 0.014987142 0.36221132 3280138
-0.024408067 0.014981227 0.36208633 3082759
-0.023642417 0.014980511 0.36208633 3477002
-0.022853119 0.014964308 0.36171135 3477002
-0.022042567 0.014932625 0.36096144 3607818
-0.021213122 0.01488546 0.35983655 3739404
-0.020388477 0.014838328 0.35871169 3542025
-0.019541264 0.014770542 0.35708684 3607818
-0.018727263 0.014723471 0.35596198 3542025
-0.017968548 0.014717785 0.35583699 3410439
-0.017234577 0.014732804 0.35621193 3476232
-0.016556887 0.014799544 0.35783678 3410439
-0.01583924 0.014835287 0.35871169 3148037
-0.015023335 0.014778015 0.35733682 3082246
-0.014193303 0.014700098 0.35546201 2819847
-0.013427938 0.01468424 0.35508707 2755337
-0.01267756 0.01468391 0.35508707 2756107
-0.011914605 0.014668103 0.3547121 2822415
-0.011168987 0.014672996 0.35483709 2888978
-0.010452214 0.014719263 0.35596198 2955798
-0.0097409142 0.014781058 0.35746181 2693909
0.009825333 0.014670829 0.3547121 4657165
0.010571683 0.014666148 0.35458711 4984846
0.011309574 0.014651154 0.35421216 4984846
0.012045932 0.014636186 0.35383719 4984846
0.012771723 0.014610902 0.35321227 4984846
0.013509279 0.014601154 0.35296229 5115919
0.014250881 0.014596603 0.35283729 5509905
0.014992019 0.014592076 0.35271233 5641232
0.015738269 0.014592747 0.35271233 5772048
0.016484585 0.014593444 0.35271233 5573899
0.017224861 0.014588996 0.35258734 5573899
0.01796468 0.014584576 0.35246235 5902607
0.01871068 0.014585353 0.35246235 5771021
0.01945675 0.014586153 0.35246235 5705485
0.020202901 0.014586982 0.35246235 5837071
0.020949131 0.01458784 0.35246235 5706255
0.021703137 0.014593896 0.35258734 5640462
0.022457754 0.014599978 0.35271233 5640462
0.023229435 0.014616434 0.35308728 5443599
0.024002794 0.014632925 0.35346225 5509392
0.024777826 0.014649439 0.35383719 5575185
0.025554549 0.014665987 0.35421216 5707025
0.026332954 0.014682557 0.35458711 5772818
0.027113045 0.014699162 0.35496208 5970197
0.027894825 0.014715794 0.35533702 5970456
0.028728686 0.014758339 0.35633692 6038048
-0.05535442 0.015655082 0.35871169 2629138
-0.054591686 0.015653161 0.35871169 3018763
-0.053829115 0.015651274 0.35871169 3740689
-0.053011231 0.01563306 0.35833672 4395537
-0.052249759 0.015631232 0.35833672 4526610
-0.051470485 0.015623986 0.35821173 4591887
-0.050780352 0.015644025 0.35871169 4591887
-0.050035942 0.015647737 0.35883665 4591887
-0.049394127 0.015684178 0.35971156 4526094
-0.048630439 0.015682492 0.35971156 4526094
-0.047883525 0.01568629 0.35983655 4132106
-0.04693982 0.015624741 0.35846171 4263692
-0.046114773 0.015601365 0.35796174 4132106
-0.045307815 0.015583468 0.3575868 4198412
-0.044518139 0.01557105 0.35733682 3869447
-0.043729648 0.015558667 0.35708684 3869447
-0.042972416 0.015557204 0.35708684 3804168
-0.042230073 0.015561216 0.35721183 3935754
-0.041501813 0.015570697 0.35746181 3410439
-0.037872609 0.015629407 0.35896164 3214343
-0.027623793 0.015837593 0.36408609 2361864
-0.026807569 0.01580956 0.36346117 2427142
-0.026003003 0.015786992 0.36296123 2689544
-0.025217988 0.01577533 0.36271125 2754824
-0.024450934 0.015774567 0.36271125 2885640
-0.02368393 0.015773831 0.36271125 3149066
-0.02291698 0.015773123 0.36271125 3411724
-0.022104282 0.015739838 0.36196133 3345931
-0.02128006 0.01569571 0.36096144 3345931
-0.020431696 0.015629876 0.35946161 3280138
-0.019596549 0.01556951 0.35808674 3082759
-0.018780407 0.015520044 0.35696188 3082759
-0.01802586 0.015519517 0.35696188 3016966
-0.01731972 0.015562483 0.35796174 2885894
-0.016615173 0.015610912 0.35908663 2820101
-0.015845187 0.015599596 0.35883665 2557958
-0.01505001 0.015561142 0.35796174 2427142
-0.014198669 0.015457522 0.35558701 2361864
-0.013433008 0.015440859 0.35521206 2362634
-0.012673417 0.015429656 0.35496208 2362634
-0.011923294 0.015429351 0.35496208 2296843
-0.01117712 0.015434503 0.35508707 2165771
-0.010456122 0.015477712 0.35608697 2100491
-0.0097377207 0.015531811 0.35733682 2363663
0.010613186 0.015476221 0.35596198 4722960
0.011361994 0.015471321 0.35583699 4853774
0.012072029 0.01541754 0.35458711 4984846
0.01279943 0.015390951 0.35396218 5182225
0.013529031 0.01536983 0.35346225 5247505
0.014266669 0.015359596 0.35321227 5509907
0.015008625 0.015354826 0.35308728 5640978
0.015755694 0.015355521 0.35308728 5575185
0.016496988 0.015350803 0.35296229 5640208
0.017237822 0.015346117 0.35283729 5640208
0.017978197 0.015341455 0.35271233 5706001
0.018724753 0.015342258 0.35271233 5771024
0.019471381 0.015343087 0.35271233 5706001
0.020218087 0.015343943 0.35271233 5640208
0.0209723 0.015350262 0.35283729 5575185
0.021727128 0.015356611 0.35296229 5575185
0.022490526 0.015368426 0.35321227 5575185
0.023255071 0.015380272 0.35346225 5509392
0.024029249 0.015397583 0.35383719 5575185
0.024805106 0.015414925 0.35421216 5575185
0.025582649 0.015432298 0.35458711 5772564
0.026352594 0.015444257 0.35483709 5969943
0.027133247 0.015461691 0.35521206 6036249
0.027915584 0.015479152 0.35558701 6037019
0.028760085 0.015529294 0.35671189 5972773
-0.055394944 0.01642701 0.35896164 2496269
-0.054498501 0.016385006 0.35808674 3346445
-0.053718474 0.016377354 0.35796174 3739406
-0.05295762 0.016375449 0.35796174 4526864
-0.052196916 0.016373577 0.35796174 4657680
-0.051436368 0.016371736 0.35796174 4853776
-0.050675947 0.016369924 0.35796174 4853776
-0.050055113 0.016413869 0.35896164 4919569
-0.049395841 0.016446404 0.35971156 4853776
-0.048632137 0.016444681 0.35971156 4787983
-0.047901817 0.016454412 0.35996154 4328202
-0.046908703 0.016372766 0.35821173 4459788
-0.046084166 0.016348291 0.35771179 4329485
-0.045261867 0.016323851 0.35721183 4526864
-0.044488523 0.016316576 0.35708684 4132106
-0.043715838 0.016309336 0.35696188 4000520
-0.042958841 0.016307835 0.35696188 4264205
-0.042201959 0.016306367 0.35696188 4066826
-0.041459687 0.016310632 0.35708684 3804168
-0.040731255 0.01632064 0.35733682 3804168
-0.039987877 0.016324967 0.35746181 3672582
-0.039230362 0.016323611 0.35746181 3672582
-0.038499847 0.016333705 0.35771179 3541766
-0.037742 0.016332408 0.35771179 3542025
-0.03708763 0.016376795 0.35871169 3542025
-0.036454432 0.016432615 0.35996154 3279623
-0.035754062 0.016459927 0.36058646 3280138
-0.035123907 0.016521497 0.36196133 3477517
-0.028375397 0.016597643 0.36383614 2427142
-0.027567767 0.016573938 0.36333618 2296069
-0.026863728 0.016612975 0.36421108 2296069
-0.026057545 0.016589331 0.36371115 2296071
-0.025296982 0.01659422 0.36383614 2427144
-0.024544369 0.016604833 0.36408609 2492937
-0.023790758 0.016615482 0.36433607 2755337
-0.01963133 0.016355697 0.35871169 2623751
-0.018820412 0.016309537 0.35771179 2492935
-0.018076872 0.016320391 0.35796174 2427142
-0.015081953 0.016352696 0.35871169 2296071
-0.014204039 0.01621555 0.355712 2165255
-0.013390819 0.016141111 0.35408717 2099978
-0.012633578 0.01612938 0.35383719 2034185
-0.011881604 0.016123367 0.3537122 2099978
-0.011165586 0.016168663 0.3547121 2165771
-0.010438012 0.016202589 0.35546201 2297357
-0.0097072804 0.016236542 0.35621193 2362636
0.011410442 0.016292745 0.35733682 4657680
0.01211091 0.016219243 0.355712 4722960
0.01282716 0.016174261 0.3547121 5116948
0.013553588 0.016146397 0.35408717 5379091
0.014287526 0.016129958 0.3537122 5379091
0.015025256 0.016119249 0.35346225 5246735
0.015773145 0.016119964 0.35346225 5443599
0.016515261 0.016115008 0.35333726 5640978
0.017256914 0.016110078 0.35321227 5640978
0.017998109 0.016105177 0.35308728 5640978
0.018738849 0.0161003 0.35296229 5575185
0.019486034 0.016101157 0.35296229 5640978
0.020233298 0.01610204 0.35296229 5706771
0.020995501 0.016114356 0.35321227 5575698
0.021743456 0.016115297 0.35321227 5575698
0.02250741 0.016127668 0.35346225 5575698
0.023272514 0.016140074 0.3537122 5641491
0.024047248 0.01615821 0.35408717 5575698
0.024823667 0.016176376 0.35446212 5772564
0.02559275 0.016188871 0.3547121 5969943
0.026372278 0.016207101 0.35508707 6036249
0.027143935 0.016219651 0.35533702 6037019
0.027926574 0.016237944 0.355712 5971741
0.028781442 0.01629621 0.35696188 6038566
0.03067713 0.016504157 0.36146137 7826281
-0.056062672 0.017160244 0.35833672 2365194
-0.055165499 0.017116301 0.35746181 3020046
-0.054405369 0.017114289 0.35746181 4068369
-0.053645402 0.017112307 0.35746181 4461330
-0.052885566 0.017110355 0.35746181 4788753
-0.052125897 0.017108439 0.35746181 4919569
-0.051384334 0.017112536 0.3575868 4984846
-0.050642382 0.017116664 0.35771179 5050639
-0.050056901 0.017174639 0.35896164 5050639
-0.048633862 0.017206948 0.35971156 4984846
-0.04787026 0.017205212 0.35971156 4853260
-0.046893995 0.017125795 0.35808674 4656395
-0.046053585 0.017094243 0.35746181 4591372
-0.045247622 0.017074682 0.35708684 4525579
-0.044458948 0.017061129 0.35683689 4394506
-0.043686762 0.017053585 0.35671189 4394506
-0.042930257 0.017052047 0.35671189 4000518
-0.042173874 0.017050542 0.35671189 4066311
-0.041432116 0.017055042 0.35683689 4001031
-0.040689927 0.017059568 0.35696188 4066824
-0.039933339 0.017058155 0.35696188 4066824
-0.039217997 0.017074684 0.35733682 3869447
-0.038474277 0.017079305 0.35746181 3738375
-0.037730113 0.01708395 0.3575868 3607305
-0.037011359 0.017100563 0.35796174 3607305
-0.036316432 0.017129151 0.3585867 3475719
-0.035656136 0.017175674 0.3595866 3476232
-0.034979552 0.01721625 0.3604615 3607818
-0.034263756 0.017238943 0.36096144 3476232
-0.033569131 0.017273599 0.36171135 3542025
-0.032860082 0.017302314 0.36233628 3542025
-0.032170597 0.01734299 0.36321118 3214343
-0.031423468 0.017353855 0.36346117 3280136
-0.030675346 0.017364752 0.36371115 3477517
-0.02990569 0.01736374 0.36371115 2951687
-0.02912608 0.017356789 0.36358616 3149066
-0.028347079 0.017349875 0.36346117 3084043
-0.027597111 0.017360885 0.36371115 2689285
-0.026836937 0.01736596 0.36383614 2361349
-0.02605838 0.017359136 0.36371115 2296069
-0.01422439 0.016992077 0.35621193 2493450
-0.013381722 0.01687842 0.35383719 2427657
-0.012624983 0.016866155 0.35358724 2427657
-0.011890301 0.016883723 0.35396218 2493450
-0.011165859 0.016919203 0.3547121 2427657
-0.010427248 0.016936829 0.35508707 2493450
-0.0097006848 0.016978327 0.35596198 2558730
-0.0089578656 0.016996009 0.35633692 2756109
0.01143896 0.01709079 0.35821173 4657680
0.012162581 0.017043686 0.35721183 4919569
0.012872989 0.016984679 0.35596198 5314325
0.013587734 0.016937623 0.35496208 5379604
0.014308407 0.016902521 0.35421216 5379091
0.015047221 0.016891303 0.35396218 5180942
0.015790619 0.016886074 0.35383719 5180942
0.016533557 0.016880879 0.3537122 5641493
0.017276032 0.01687571 0.35358724 5509907
0.018018048 0.016870568 0.35346225 5444114
0.018752974 0.01685949 0.35321227 5575698
0.019500719 0.016860371 0.35321227 5509905
0.020255705 0.016867246 0.35333726 5444112
0.0210113 0.016874153 0.35346225 5444112
0.021767506 0.01688109 0.35358724 5509905
0.022524327 0.016888056 0.3537122 5509905
0.023289988 0.016901018 0.35396218 5641491
0.024056794 0.01691401 0.35421216 5575698
0.024824755 0.016927036 0.35446212 5575698
0.025611902 0.016952028 0.35496208 5838870
0.026382707 0.016965117 0.35521206 5839640
0.02716421 0.016984204 0.35558701 5971739
0.027947403 0.01700332 0.35596198 5973025
0.028812913 0.017070238 0.35733682 5645606
-0.055849656 0.017851414 0.35696188 2823435
-0.055071108 0.01784307 0.35683689 4002576
-0.05431227 0.017841013 0.35683689 4330512
-0.053572346 0.01784523 0.35696188 4526864
-0.052850541 0.01785573 0.35721183 5182741
-0.052109599 0.017860014 0.35733682 5511704
-0.051368266 0.017864328 0.35746181 5050639
-0.05062655 0.017868673 0.3575868 5050126
-0.050058741 0.0179355 0.35896164 5115919
-0.047871996 0.017967526 0.35971156 4984331
-0.046862967 0.017872144 0.35783678 5115917
-0.046039149 0.017845467 0.35733682 4984331
-0.045233425 0.017825071 0.35696188 4787465
-0.044444978 0.017810948 0.35671189 4590600
-0.043657716 0.017796863 0.35646191 4525577
-0.042901713 0.017795291 0.35646191 4394506
-0.042160604 0.017799988 0.3565869 4262920
-0.041404564 0.017798478 0.3565869 4066311
-0.040662881 0.017803237 0.35671189 4329483
-0.039934751 0.017814264 0.35696188 4264203
-0.039191954 0.017819081 0.35708684 4066824
-0.038448717 0.017823931 0.35721183 4001031
-0.037718248 0.017835045 0.35746181 3804168
-0.036986813 0.017846193 0.35771179 3607559
-0.036292385 0.017876072 0.35833672 3607559
-0.035595406 0.01790598 0.35896164 3673352
-0.034920119 0.017948382 0.35983655 3673352
-0.034229349 0.017984571 0.36058646 3804684
-0.033512291 0.018008327 0.36108643 3738891
-0.03279319 0.018032104 0.36158636 3738891
-0.032072064 0.018055914 0.36208633 3607818
-0.031305663 0.018054819 0.36208633 3739404
-0.030560426 0.018066226 0.36233628 3870990
-0.029803919 0.018071424 0.36246127 3345416
-0.029046964 0.018076658 0.36258626 3345929
-0.028289536 0.018081916 0.36271125 3280136
-0.027588543 0.018124592 0.36358616 3016964
-0.026837824 0.018136142 0.36383614 2689031
-0.01420482 0.017720995 0.355712 2623753
-0.013377358 0.017620988 0.3537122 2689546
-0.012643167 0.017639318 0.35408717 2886925
-0.011907401 0.017657673 0.35446212 3018511
-0.011174005 0.017682284 0.35496208 2689546
-0.010442177 0.017713152 0.35558701 2755339
-0.0096940929 0.017719142 0.355712 2820619
-0.0089486307 0.017731387 0.35596198 2952205
-0.0082078734 0.017756112 0.35646191 3017996
-0.0074571655 0.01776219 0.3565869 3017996
-0.0067059323 0.017768297 0.35671189 2952203
-0.0059499969 0.017761983 0.3565869 2952203
-0.0051964107 0.017761925 0.3565869 3214605
-0.0044443756 0.017768122 0.35671189 3280398
-0.003693098 0.01778057 0.35696188 3214605
-0.0029428129 0.017805504 0.35746181 3148812
-0.0021926968 0.017849142 0.35833672 3148812
-0.0014383683 0.017886586 0.35908663 3477263
-0.00068085379 0.017924059 0.35983655 3543310
0.010778821 0.018010356 0.36146137 3805969
0.011495437 0.017936219 0.35996154 4395278
0.01221002 0.017868333 0.3585867 4788753
0.012923363 0.017806703 0.35733682 5182739
0.013621908 0.017732641 0.35583699 5051153
0.014344458 0.017695975 0.35508707 4853774
0.015095779 0.017696707 0.35508707 5182225
0.015841587 0.017691242 0.35496208 5248018
0.016592775 0.017692031 0.35496208 5313811
0.017331816 0.017680394 0.3547121 5248018
0.018050758 0.017650096 0.35408717 5247505
0.018787036 0.017638514 0.35383719 5115919
0.019529231 0.017633192 0.3537122 5247505
0.020278135 0.017634127 0.3537122 5247505
0.021027127 0.017635096 0.3537122 5313298
0.021783894 0.017642327 0.35383719 5379091
0.022549232 0.017655818 0.35408717 5379091
0.023307497 0.017663108 0.35421216 5379091
0.024066376 0.01767043 0.35433716 5510677
0.024843382 0.017690247 0.3547121 5510677
0.025613053 0.017703863 0.35496208 5576470
0.026393166 0.017723747 0.35533702 6103327
0.027174966 0.017743662 0.355712 6038566
0.027968273 0.017769847 0.35621193 6041394
0.028844427 0.017845949 0.35771179 7690586
-0.056512132 0.018578114 0.35633692 2298888
-0.055734459 0.018569421 0.35621193 3216140
-0.054976758 0.018567279 0.35621193 4198926
-0.054238234 0.018571684 0.35633692 4724243
-0.053536873 0.018589154 0.35671189 5051923
-0.052815564 0.018600134 0.35696188 5313811
-0.05207511 0.018604634 0.35708684 5445397
-0.051334284 0.018609168 0.35721183 5248018
-0.050628457 0.018626755 0.3575868 5050126
-0.049921177 0.018644372 0.35796174 5180940
-0.049263943 0.018681543 0.35871169 5246733
-0.048485365 0.018673185 0.3585867 5378319
-0.047657534 0.018645331 0.35808674 5050124
-0.0468156 0.018611014 0.35746181 5247503
-0.046008654 0.018589746 0.35708684 5247503
-0.045203418 0.018568518 0.35671189 4984844
-0.044415478 0.018553827 0.35646191 4722186
-0.043659326 0.018552182 0.35646191 4787979
-0.042903289 0.018550571 0.35646191 4459786
-0.042147368 0.018548992 0.35646191 4328200
-0.041391566 0.018547449 0.35646191 4262920
-0.040650114 0.018552437 0.3565869 4262920
-0.039908238 0.018557455 0.35671189 4066311
-0.039179653 0.018569009 0.35696188 4132104
-0.038436651 0.018574089 0.35708684 4132104
-0.037706416 0.018585704 0.35733682 4198412
-0.036988139 0.01860385 0.35771179 4067340
-0.036281023 0.018628521 0.35821173 3804168
-0.035571884 0.018653223 0.35871169 3804168
-0.034884967 0.018690951 0.35946161 3804168
-0.034183096 0.018722204 0.36008653 4067340
-0.033478662 0.018753488 0.36071146 3935754
-0.032760341 0.018778304 0.36121142 4067340
-0.032028895 0.018796647 0.36158636 3935754
-0.031285137 0.018808523 0.36183634 3935754
-0.030540394 0.018820433 0.36208633 3541766
-0.029784394 0.018825879 0.36221132 3607559
-0.029037941 0.018837845 0.36246127 3410693
-0.028271003 0.018836856 0.36246127 3542279
-0.02754206 0.018861877 0.36296123 3608072
-0.026838729 0.018906409 0.36383614 3280136
-0.01423517 0.0185128 0.35646191 3214091
-0.013434455 0.018447498 0.35521206 3214091
-0.012670284 0.018427666 0.35483709 3411470
-0.011932905 0.018446809 0.35521206 3477517
-0.01118609 0.018453 0.35533702 3280138
-0.010442429 0.018465715 0.35558701 3411724
-0.0096943155 0.018471966 0.355712 3411724
-0.0089425379 0.018471755 0.355712 3411724
-0.0081994031 0.01849105 0.35608697 3477004
-0.0074494584 0.018497391 0.35621193 3477004
-0.0066989865 0.018503763 0.35633692 3411211
-0.0059479857 0.018510163 0.35646191 3345418
-0.0051964545 0.018516596 0.3565869 3345418
-0.004442832 0.018516567 0.3565869 3739922
-0.0036930824 0.018536042 0.35696188 3740435
-0.0029417379 0.018555544 0.35733682 3345677
-0.002189562 0.018581569 0.35783678 3410957
-0.0014357591 0.018614111 0.35846171 3608590
-0.00067953527 0.018653177 0.35921162 3740174
7.9877136e-05 0.018692274 0.35996154 3673611
0.0031342749 0.018758105 0.36121142 3936524
0.0038951756 0.01874543 0.36096144 3739145
0.0046550506 0.018732786 0.36071146 3673352
0.0054232907 0.018752631 0.36108643 3936524
0.006199575 0.018791974 0.36183634 3542025
0.010816685 0.018840468 0.36271125 3281168
0.011539966 0.018769667 0.36133641 4133649
0.012257484 0.018698893 0.35996154 4658709
0.012973763 0.018634638 0.35871169 4723473
0.013689594 0.0185769 0.3575868 4657680
0.014410826 0.018532174 0.35671189 4788753
0.015160304 0.01852644 0.3565869 5380120
0.015909316 0.018520735 0.35646191 5380120
0.016657863 0.01851506 0.35633692 5051155
0.017412061 0.018515909 0.35633692 5116948
0.018115353 0.018464828 0.35533702 5182741
0.018827759 0.018426765 0.35458711 5116948
0.019564671 0.018414712 0.35433716 5116948
0.020300603 0.018402684 0.35408717 5313813
0.021050414 0.018403681 0.35408717 5182227
0.021800311 0.018404707 0.35408717 5248020
0.022558253 0.018412262 0.35421216 5313813
0.023325032 0.018426344 0.35446212 5511192
0.024084469 0.018433958 0.35458711 5642778
0.024844533 0.018441608 0.3547121 5708571
0.025632273 0.018468786 0.35521206 5840157
0.026403666 0.018482996 0.35546201 6169122
0.02719531 0.018510237 0.35596198 5842731
0.027989177 0.018537516 0.35646191 7821148
0.028886059 0.018629834 0.35821173 8022890
-0.057332955 0.019356648 0.35671189 1775624
-0.056435075 0.019306911 0.35583699 2756874
-0.055677973 0.019304685 0.35583699 3543824
-0.054940328 0.019309273 0.35596198 4461584
-0.054221325 0.019320674 0.35621193 4986130
-0.05348267 0.019325329 0.35633692 5248018
-0.052762125 0.019336794 0.3565869 5247503
-0.052058902 0.01935507 0.35696188 5313296
-0.051318303 0.01935982 0.35708684 5379089
-0.050595012 0.019371379 0.35733682 5378319
-0.049853377 0.0193762 0.35746181 5246987
-0.049162842 0.01940137 0.35796174 5378573
-0.048402715 0.019399475 0.35796174 5510159
-0.047592811 0.019377301 0.3575868 5510159
-0.046817385 0.019368706 0.35746181 5904917
-0.045994293 0.019339828 0.35696188 5115917
-0.045189291 0.019317763 0.3565869 5379089
-0.04441715 0.019309277 0.35646191 4853772
-0.043645661 0.019300824 0.35633692 4590602
-0.042889863 0.019299177 0.35633692 4459786
-0.042134173 0.019297563 0.35633692 4328200
-0.041393112 0.01930275 0.35646191 4525581
-0.040637381 0.019301202 0.35646191 4591887
-0.039895732 0.019306449 0.3565869 4460301
-0.039167386 0.019318501 0.35683689 4262922
-0.038438071 0.019330578 0.35708684 4262922
-0.037707802 0.019342689 0.35733682 4132106
-0.036989495 0.0193616 0.35771179 4263692
-0.036269691 0.019380536 0.35808674 4001033
-0.035560787 0.019406268 0.3585867 4001033
-0.034861974 0.01943879 0.35921162 3935240
-0.034172472 0.019478105 0.35996154 3869961
-0.033468276 0.019510685 0.36058646 3935754
-0.032750174 0.019536531 0.36108643 3935754
-0.032018974 0.019555645 0.36146137 4067340
-0.031275444 0.019568028 0.36171135 3804168
-0.030530939 0.019580441 0.36196133 3672582
-0.029764887 0.019579362 0.36196133 3804168
-0.029018937 0.019591844 0.36221132 3607559
-0.028262239 0.019597588 0.36233628 3673352
-0.027543016 0.019630406 0.36296123 3673865
-0.026839653 0.019676773 0.36383614 3477256
-0.015841953 0.019389831 0.35871169 3410957
-0.01503112 0.019321809 0.35746181 3542543
-0.014190655 0.019206528 0.35533702 3739406
-0.013425377 0.019185867 0.35496208 3607818
-0.01268402 0.019199014 0.35521206 3542025
-0.011937422 0.019205432 0.35533702 3476232
-0.011190311 0.019211883 0.35546201 3542025
-0.010439014 0.019211611 0.35546201 3739404
-0.0096911341 0.019218126 0.35558701 3936783
-0.0089427326 0.019224668 0.355712 3542025
-0.0081966883 0.019237999 0.35596198 3607305
-0.0074469778 0.019244604 0.35608697 3936783
-0.0066967392 0.019251237 0.35621193 3870992
-0.0059459731 0.019257907 0.35633692 3607820
-0.0051946756 0.019264605 0.35646191 3607820
-0.0044428436 0.019271335 0.3565869 3673613
-0.0036904772 0.019278092 0.35671189 3607820
-0.0029396303 0.019298391 0.35708684 3476234
-0.0021879519 0.019325478 0.3575868 3607820
-0.0014341464 0.019352598 0.35808674 3739406
-0.00067821128 0.019379746 0.3585867 3739404
7.9911391e-05 0.019420438 0.35933661 3738891
0.00084034877 0.019440893 0.35971156 3803914
0.0016029505 0.019468134 0.36021152 3803914
0.0023644092 0.019468389 0.36021152 4067340
0.0031258953 0.019468676 0.36021152 3935754
0.0038887598 0.019475751 0.36033651 3869961
0.0046537966 0.019489609 0.36058646 3869961
0.0054199258 0.0195035 0.36083645 3804938
0.006189289 0.019524179 0.36121142 3673098
0.0069674943 0.019565158 0.36196133 3214345
0.0077569224 0.01962644 0.36308622 2689031
0.010063979 0.019634815 0.36321118 2823183
0.010821022 0.019615149 0.36283624 3413269
0.011564557 0.019575246 0.36208633 3675156
0.012300714 0.019528607 0.36121142 4134164
0.013028708 0.019475242 0.36021152 4330258
0.013752528 0.019421905 0.35921162 4658709
0.014477226 0.019375352 0.35833672 5052184
0.015224856 0.019362617 0.35808674 5118231
0.015977073 0.019356674 0.35796174 4986132
0.016734669 0.019357515 0.35796174 5116948
0.017492335 0.019358393 0.35796174 5116948
0.01821184 0.019318746 0.35721183 5182741
0.018908339 0.019258846 0.35608697 5248020
0.019607047 0.019205732 0.35508707 5248020
0.020344593 0.019193202 0.35483709 5379606
0.021081163 0.019180706 0.35458711 5379606
0.021824453 0.019175002 0.35446212 5182741
0.022575259 0.019176086 0.35446212 5248534
0.023326147 0.019177204 0.35446212 5380120
0.024102602 0.019198643 0.35483709 5511706
0.02488073 0.019220112 0.35521206 5643292
0.025669565 0.019248381 0.355712 5972257
0.026432766 0.019256392 0.35583699 5907234
0.027225239 0.019284731 0.35633692 6241857
0.028108263 0.019373985 0.35796174 7891304
0.028927732 0.019415934 0.35871169 7499113
-0.058135293 0.020129971 0.35696188 1974545
-0.057174541 0.020057136 0.355712 1905929
-0.056397691 0.020047776 0.35558701 2822667
-0.055660654 0.020052547 0.355712 3543822
-0.054923236 0.020057349 0.35583699 4724243
-0.05418545 0.02006219 0.35596198 5182739
-0.053466048 0.020074103 0.35621193 5247503
-0.052745733 0.020086048 0.35646191 5313550
-0.052024517 0.020098031 0.35671189 5313550
-0.05130237 0.020110039 0.35696188 5379343
-0.050579309 0.020122085 0.35721183 5313550
-0.049872767 0.020141203 0.3575868 5116171
-0.049096104 0.020132193 0.35746181 5313550
-0.048337016 0.02013026 0.35746181 5247757
-0.047611319 0.020142436 0.35771179 5247757
-0.046786465 0.02011242 0.35721183 5181194
-0.04597998 0.020089483 0.35683689 5181194
-0.04517521 0.020066584 0.35646191 5115917
-0.044403296 0.020057792 0.35633692 4919565
-0.043632038 0.020049036 0.35621193 4853774
-0.04289151 0.020054383 0.35633692 4525579
-0.04213579 0.020052729 0.35633692 4328200
-0.041380182 0.020051114 0.35633692 4460301
-0.040638927 0.020056562 0.35646191 4591887
-0.039897256 0.020062044 0.3565869 4394508
-0.039168868 0.020074587 0.35683689 4197129
-0.038439523 0.020087166 0.35708684 4262922
-0.037709229 0.020099774 0.35733682 4066313
-0.036990885 0.020119444 0.35771179 4132106
-0.036271047 0.020139145 0.35808674 4132106
-0.035562109 0.020165905 0.3585867 4066313
-0.034863263 0.020199722 0.35921162 4066826
-0.034161866 0.020233568 0.35983655 3804168
-0.033457909 0.020267447 0.3604615 3869961
-0.032740045 0.020294329 0.36096144 3935754
-0.03202014 0.020321233 0.36146137 3935754
-0.031276584 0.020334123 0.36171135 3935240
-0.030521499 0.020340014 0.36183634 3935240
-0.029765958 0.020345937 0.36196133 3935754
-0.029019972 0.020358924 0.36221132 3739145
-0.028263245 0.020364912 0.36233628 3739145
-0.027534509 0.020392012 0.36283624 3739145
-0.026840599 0.020447232 0.36383614 3608072
-0.018168028 0.020207016 0.35971156 2820617
-0.01737123 0.02016432 0.35896164 3082505
-0.016589204 0.020135701 0.35846171 3214091
-0.015798276 0.020093072 0.35771179 3476234
-0.014989525 0.020022396 0.35646191 3804684
-0.014196062 0.019965794 0.35546201 4067856
-0.013435215 0.019951351 0.35521206 3804684
-0.012679909 0.01994396 0.35508707 3673098
-0.011937743 0.019957662 0.35533702 3738891
-0.011190601 0.019964369 0.35546201 3738891
-0.010439274 0.019964095 0.35546201 3673098
-0.0096879546 0.019963847 0.35546201 3738891
-0.0089397877 0.019970655 0.35558701 3935500
-0.0081910985 0.019977493 0.355712 4067086
-0.0074444986 0.019991383 0.35596198 3935500
-0.0066921441 0.019991262 0.35596198 3869707
-0.0059439591 0.020005211 0.35621193 3673098
-0.005192894 0.020012178 0.35633692 3738891
-0.0044412962 0.020019174 0.35646191 3804684
-0.0036904556 0.02003322 0.35671189 3673611
-0.0029385481 0.020047296 0.35696188 3607818
-0.0021871026 0.020075446 0.35746181 4002576
-0.0014335294 0.020103628 0.35796174 3870990
-0.00067782693 0.020131838 0.35846171 3936270
8.0035439e-05 0.020167103 0.35908663 3936270
0.00083997624 0.020188363 0.35946161 4066572
0.001601525 0.020209651 0.35983655 4066572
0.0023638639 0.020223953 0.36008653 4066572
0.0031251172 0.020224251 0.36008653 4066826
0.0038877486 0.020231597 0.36021152 4066826
0.0046525546 0.020245997 0.3604615 4067340
0.0054184506 0.020260431 0.36071146 3935754
0.0061875824 0.020281915 0.36108643 4067340
0.0069583361 0.020303432 0.36146137 3738891
0.0077333888 0.020332003 0.36196133 3476232
0.0085105989 0.02036061 0.36246127 3542795
0.0092963669 0.020403292 0.36321118 3345931
0.010064575 0.020403881 0.36321118 3280652
0.010799285 0.020341313 0.36208633 4597543
0.011569207 0.020348983 0.36221132 3939613
0.012331199 0.020342644 0.36208633 3937814
0.013065592 0.020294206 0.36121142 4199957
0.013805915 0.020259839 0.36058646 4725016
0.014533553 0.020211458 0.35971156 5184794
0.015278812 0.020191196 0.35933661 4986645
0.016028121 0.020177988 0.35908663 4788753
0.016782291 0.020171836 0.35896164 5051155
0.01752989 0.020158693 0.35871169 5182741
0.0182765 0.020145576 0.35846171 5314327
0.018982308 0.020090347 0.35746181 5182741
0.019677054 0.020028118 0.35633692 5182741
0.020388614 0.019986991 0.35558701 5248534
0.021126801 0.019973991 0.35533702 5182741
0.021864017 0.019961027 0.35508707 5380120
0.022608219 0.019955121 0.35496208 5511706
0.023368426 0.019963296 0.35508707 5183511
0.024129253 0.019971505 0.35521206 5380890
0.024934476 0.020014886 0.35596198 5578269
0.02577905 0.020086417 0.35721183 5907234
0.026554752 0.020101763 0.35746181 6171437
0.027350705 0.020131201 0.35796174 7226953
0.028129248 0.02014661 0.35821173 7695209
-0.058137696 0.020887522 0.35696188 2039827
-0.057136718 0.020797357 0.35546201 1971722
-0.05638019 0.020794993 0.35546201 2953740
-0.055643372 0.020799976 0.35558701 3741201
-0.054906193 0.020804992 0.355712 4527375
-0.054168638 0.020810047 0.35583699 4986641
-0.053449463 0.020822439 0.35608697 5313809
-0.052729376 0.020834869 0.35633692 5444882
-0.052026626 0.020854641 0.35671189 5379343
-0.051304456 0.020867137 0.35696188 5378573
-0.05056366 0.020872356 0.35708684 5181194
-0.049839921 0.020884918 0.35733682 5510159
-0.049115248 0.020897513 0.3575868 5116171
-0.048355859 0.020895537 0.3575868 5708821
-0.047596585 0.020893591 0.3575868 5050378
-0.046788339 0.020869778 0.35721183 5115401
-0.045965713 0.020838704 0.35671189 5180940
-0.045176998 0.020822268 0.35646191 5050124
-0.044389479 0.020805871 0.35621193 5050637
-0.043633763 0.020804113 0.35621193 4853772
-0.042878151 0.020802388 0.35621193 4722958
-0.042122666 0.020800699 0.35621193 4525579
-0.041381799 0.020806341 0.35633692 4591885
-0.040640514 0.020812022 0.35646191 4591885
-0.039898805 0.020817734 0.3565869 4526094
-0.039170388 0.020830773 0.35683689 4657680
-0.038441014 0.020843849 0.35708684 4592657
-0.037723862 0.020864245 0.35746181 4329485
-0.036992304 0.020877386 0.35771179 4329485
-0.036285099 0.020905145 0.35821173 4263692
-0.035575863 0.020932935 0.35871169 4198412
-0.034876727 0.020968048 0.35933661 4395791
-0.034175027 0.02100319 0.35996154 4133133
-0.033459164 0.021031069 0.3604615 3935754
-0.032741271 0.021058982 0.36096144 3869961
-0.032010265 0.021079632 0.36133641 3869961
-0.031256128 0.02108573 0.36146137 3869961
-0.030512081 0.021099156 0.36171135 4067340
-0.029756777 0.021105321 0.36183634 4133133
-0.029011019 0.02111881 0.36208633 3936524
-0.028254529 0.021125048 0.36221132 3673352
-0.027526017 0.021153182 0.36271125 3607559
-0.026823124 0.021203211 0.36358616 3542279
