# .PCD v0.7 - Point Cloud Data file format
VERSION 0.7
FIELDS x y z intensity
SIZE 4 4 4 4
TYPE F F F F
COUNT 1 1 1 1
WIDTH 1236
HEIGHT 1
VIEWPOINT 0 0 0 1 0 0 0
POINTS 1236
DATA ascii
-0.054801762 -0.12350892 0.47869885 -2
-0.053893417 -0.12376107 0.47969875 -2
-0.0028330067 -0.12135106 0.47082469 -2
-0.0018303364 -0.12119074 0.47019976 -2
-0.00083096477 -0.12112722 0.46994978 -2
0.00016736842 -0.12106384 0.46969983 -2
0.0011652865 -0.12106499 0.46969983 -2
0.0021632351 -0.12106624 0.46969983 -2
0.0031612178 -0.12106765 0.46969983 -2
0.0041614505 -0.1211336 0.46994978 -2
0.0051614139 -0.12116747 0.47007477 -2
0.0061635901 -0.12123365 0.47032475 -2
0.0071744923 -0.12142886 0.47107467 -2
0.0081951385 -0.12172082 0.47219956 -2
-0.075277284 -0.12102895 0.47244954 -2
-0.074108496 -0.12076422 0.47144964 -2
-0.073021762 -0.12062775 0.47094968 -2
-0.071956515 -0.12052343 0.47057474 -2
-0.070893116 -0.12041926 0.47019976 -2
-0.069850154 -0.12034726 0.46994978 -2
-0.068808481 -0.12027545 0.46969983 -2
-0.067768097 -0.1202037 0.46944985 -2
-0.066729017 -0.1201322 0.46919987 -2
-0.065708734 -0.12009281 0.46907488 -2
-0.0647237 -0.12011755 0.46919987 -2
-0.063738309 -0.12014242 0.46932486 -2
-0.062786028 -0.12023142 0.46969983 -2
-0.061815891 -0.12028857 0.46994978 -2
-0.060877249 -0.12040981 0.47044975 -2
-0.059952583 -0.12056317 0.47107467 -2
-0.059056696 -0.1207806 0.47194958 -2
-0.058203403 -0.12109414 0.47319946 -2
-0.057344958 -0.12140775 0.47444931 -2
-0.056511041 -0.12178545 0.47594914 -2
-0.055656321 -0.12213125 0.47732401 -2
-0.054767303 -0.1224132 0.4784489 -2
-0.053859618 -0.12266327 0.47944877 -2
-0.0048364755 -0.1204007 0.47107467 -2
-0.0038317894 -0.12027346 0.47057474 -2
-0.0028292122 -0.12014633 0.47007477 -2
-0.0018297167 -0.12008319 0.46982482 -2
-0.00083148421 -0.12005217 0.46969983 -2
0.00016624088 -0.12002123 0.46957484 -2
0.0011634617 -0.11999042 0.46944985 -2
0.0021607571 -0.11999168 0.46944985 -2
0.0031589274 -0.12002501 0.46957484 -2
0.0041576652 -0.12005847 0.46969983 -2
0.0051583475 -0.120124 0.46994978 -2
0.0061601358 -0.12018964 0.47019976 -2
0.0071687424 -0.12035124 0.47082469 -2
0.008188731 -0.12064079 0.47194958 -2
0.0092330296 -0.12118606 0.47407436 -2
-0.075288579 -0.12004092 0.4725745 -2
-0.074178629 -0.1198737 0.47194958 -2
-0.073052213 -0.1196749 0.47119966 -2
-0.071986586 -0.1195715 0.47082469 -2
-0.070941649 -0.1195 0.47057474 -2
-0.069860861 -0.11936513 0.47007477 -2
-0.068837389 -0.1193257 0.46994978 -2
-0.067796618 -0.11925461 0.46969983 -2
-0.066757157 -0.11918371 0.46944985 -2
-0.065736465 -0.11914466 0.46932486 -2
-0.064733781 -0.11913748 0.46932486 -2
-0.06378223 -0.11922567 0.46969983 -2
-0.062812559 -0.11928221 0.46994978 -2
-0.061842036 -0.11933888 0.47019976 -2
-0.060902983 -0.11945913 0.47069973 -2
-0.059977908 -0.11961123 0.47132465 -2
-0.059081629 -0.11982687 0.47219956 -2
-0.058227912 -0.12013776 0.47344941 -2
-0.05736905 -0.12044876 0.47469929 -2
-0.056534711 -0.12082331 0.47619912 -2
-0.055665009 -0.12113451 0.477449 -2
-0.054761544 -0.12138241 0.4784489 -2
-0.053839941 -0.1215987 0.4793238 -2
-0.0058374349 -0.11938713 0.47107467 -2
-0.0048305327 -0.11922914 0.47044975 -2
-0.0038283111 -0.11913466 0.47007477 -2
-0.0028291733 -0.11910361 0.46994978 -2
-0.0018300636 -0.11904106 0.46969983 -2
-0.00083221652 -0.11901026 0.46957484 -2
0.0001651229 -0.11897959 0.46944985 -2
0.0011619583 -0.11894903 0.46932486 -2
0.0021588679 -0.11895031 0.46932486 -2
0.0031566515 -0.11898334 0.46944985 -2
0.004155003 -0.11901649 0.46957484 -2
0.0051539266 -0.11904978 0.46969983 -2
0.0061567002 -0.11914658 0.47007477 -2
0.0071649174 -0.1193068 0.47069973 -2
0.0081845149 -0.1195939 0.47182459 -2
0.0092259813 -0.1201029 0.47382438 -2
-0.075459264 -0.11930461 0.47369939 -2
-0.074248835 -0.11898144 0.47244954 -2
-0.073121518 -0.11878436 0.4716996 -2
-0.072035849 -0.11865036 0.47119966 -2
-0.070990264 -0.1185795 0.47094968 -2
-0.069945976 -0.11850876 0.47069973 -2
-0.068902992 -0.1184382 0.47044975 -2
-0.067861311 -0.11836775 0.47019976 -2
-0.066820912 -0.11829746 0.46994978 -2
-0.065799311 -0.1182588 0.46982482 -2
-0.06477844 -0.11822025 0.46969983 -2
-0.063809246 -0.11827622 0.46994978 -2
-0.062855877 -0.11836376 0.47032475 -2
-0.061901126 -0.11845145 0.47069973 -2
-0.060961146 -0.1185707 0.47119966 -2
-0.06003511 -0.1187215 0.47182459 -2
-0.059122253 -0.1189039 0.4725745 -2
-0.058252484 -0.1191807 0.47369939 -2
-0.057393212 -0.11948911 0.47494927 -2
-0.056543615 -0.11982904 0.47632411 -2
-0.055673774 -0.12013763 0.47757399 -2
-0.054770157 -0.12038345 0.47857386 -2
-0.053848404 -0.12059793 0.47944877 -2
-0.0068435892 -0.11846826 0.47144964 -2
-0.005830043 -0.11821731 0.47044975 -2
-0.0048284368 -0.1181549 0.47019976 -2
-0.0038278822 -0.1180926 0.46994978 -2
-0.0028291296 -0.11806186 0.46982482 -2
-0.0018308909 -0.11803122 0.46969983 -2
-0.00083294086 -0.11796928 0.46944985 -2
0.00016401448 -0.11793886 0.46932486 -2
0.0011604658 -0.11790859 0.46919987 -2
0.0021575657 -0.11794123 0.46932486 -2
0.0031543903 -0.11794259 0.46932486 -2
0.0041523571 -0.11797547 0.46944985 -2
0.005150896 -0.11800846 0.46957484 -2
0.0061532822 -0.11810441 0.46994978 -2
0.0071611134 -0.11826329 0.47057474 -2
0.0081803203 -0.11854795 0.4716996 -2
0.0092165247 -0.11898979 0.47344941 -2
0.010276418 -0.11962026 0.47594914 -2
-0.074378073 -0.11818109 0.47332445 -2
-0.073190898 -0.11789208 0.47219956 -2
-0.07210432 -0.11775927 0.4716996 -2
-0.071076639 -0.11772023 0.47157463 -2
-0.070031159 -0.11765014 0.47132465 -2
-0.069005296 -0.1176114 0.47119966 -2
-0.06796214 -0.11754157 0.47094968 -2
-0.066920273 -0.1174719 0.47069973 -2
-0.065897219 -0.11743356 0.47057474 -2
-0.064874895 -0.11739537 0.47044975 -2
-0.063887253 -0.11741969 0.47057474 -2
-0.062915973 -0.11747532 0.47082469 -2
-0.061960295 -0.11756227 0.47119966 -2
-0.061019365 -0.11768053 0.4716996 -2
-0.0601083 -0.11786126 0.47244954 -2
-0.059225496 -0.11810445 0.47344941 -2
-0.058353983 -0.11837894 0.4745743 -2
-0.057477854 -0.11865352 0.47569919 -2
-0.05661194 -0.11895939 0.47694904 -2
-0.055711742 -0.11920301 0.47794893 -2
-0.054793146 -0.11941557 0.47882384 -2
-0.05384291 -0.11956588 0.47944877 -2
-0.0078490172 -0.1175172 0.4716996 -2
-0.006834751 -0.11729938 0.47082469 -2
-0.0058288448 -0.11717513 0.47032475 -2
-0.0048263385 -0.11708213 0.46994978 -2
-0.0038284687 -0.11708265 0.46994978 -2
-0.0028290809 -0.11702101 0.46969983 -2
-0.001830737 -0.1169595 0.46944985 -2
-0.00083365705 -0.11692924 0.46932486 -2
0.00016291566 -0.1168991 0.46919987 -2
0.0011592933 -0.11690021 0.46919987 -2
0.0021557014 -0.11690143 0.46919987 -2
0.0031521427 -0.11690277 0.46919987 -2
0.0041497257 -0.11693536 0.46932486 -2
0.0051478823 -0.1169681 0.46944985 -2
0.0061498834 -0.11706321 0.46982482 -2
0.0071573285 -0.11722072 0.47044975 -2
0.008176147 -0.11750296 0.47157463 -2
0.009207096 -0.11787872 0.47307447 -2
0.010255268 -0.11837921 0.47507423 -2
0.01130311 -0.11878641 0.47669908 -2
-0.073299125 -0.11705995 0.47294948 -2
-0.072172873 -0.11686644 0.47219956 -2
-0.071125433 -0.11679682 0.47194958 -2
-0.070079282 -0.11672734 0.4716996 -2
-0.069071054 -0.11671989 0.4716996 -2
-0.06802699 -0.11665071 0.47144964 -2
-0.067019731 -0.1166435 0.47144964 -2
-0.0659777 -0.11657462 0.47119966 -2
-0.064971402 -0.11656766 0.47119966 -2
-0.063982293 -0.1165918 0.47132465 -2
-0.063009553 -0.11664697 0.47157463 -2
-0.062035959 -0.11670227 0.47182459 -2
-0.061109986 -0.11685044 0.47244954 -2
-0.060197446 -0.11702963 0.47319946 -2
-0.059313159 -0.11727075 0.47419935 -2
-0.058455527 -0.11757377 0.4754492 -2
-0.057577658 -0.11784602 0.47657409 -2
-0.056695163 -0.11811835 0.47769895 -2
-0.055778913 -0.11832899 0.47857386 -2
-0.054844808 -0.11850882 0.4793238 -2
-0.053921711 -0.11871967 0.48019871 -2
-0.0078470577 -0.116473 0.47157463 -2
-0.0068313582 -0.11622621 0.47057474 -2
-0.0058276476 -0.11613389 0.47019976 -2
-0.004826806 -0.11607257 0.46994978 -2
-0.0038280345 -0.11604223 0.46982482 -2
-0.0028290274 -0.11598112 0.46957484 -2
-0.0018310642 -0.11592011 0.46932486 -2
-0.00083436538 -0.11589013 0.46919987 -2
0.00016178325 -0.11582937 0.46894991 -2
0.0011575143 -0.11583047 0.46894991 -2
0.0021532755 -0.1158317 0.46894991 -2
0.0031490701 -0.11583301 0.46894991 -2
0.0041471114 -0.1158962 0.46919987 -2
0.0051462553 -0.11595952 0.46944985 -2
0.0061465031 -0.11602291 0.46969983 -2
0.0071554659 -0.11620997 0.47044975 -2
0.008171997 -0.11645886 0.47144964 -2
0.0092001259 -0.11680054 0.47282448 -2
0.01023685 -0.11717319 0.47432432 -2
0.011271119 -0.11745336 0.4754492 -2
0.012329604 -0.11791892 0.47732401 -2
-0.10785686 -0.11639183 0.47294948 -2
-0.106778 -0.1163175 0.47269949 -2
-0.10575654 -0.11630482 0.47269949 -2
-0.10479086 -0.11635382 0.47294948 -2
-0.10382452 -0.11640298 0.47319946 -2
-0.10296609 -0.11657524 0.47394937 -2
-0.073446147 -0.11628631 0.47394937 -2
-0.0722415 -0.11597183 0.47269949 -2
-0.071174294 -0.1158722 0.47232455 -2
-0.070127502 -0.11580335 0.47207457 -2
-0.069100298 -0.11576533 0.47194958 -2
-0.068091892 -0.11575808 0.47194958 -2
-0.067065932 -0.11572031 0.47182459 -2
-0.066040739 -0.11568269 0.4716996 -2
-0.065050751 -0.11570649 0.47182459 -2
-0.064060442 -0.11573043 0.47194958 -2
-0.063069791 -0.11575449 0.47207457 -2
-0.062111679 -0.11583998 0.47244954 -2
-0.061184507 -0.11598688 0.47307447 -2
-0.060286652 -0.11619516 0.47394937 -2
-0.05941651 -0.11646483 0.47507423 -2
-0.058557138 -0.11676525 0.47632411 -2
-0.057677511 -0.11703514 0.477449 -2
-0.056748766 -0.1172132 0.47819892 -2
-0.055846147 -0.11745267 0.47919881 -2
-0.054910827 -0.11763095 0.47994873 -2
-0.054000545 -0.11787062 0.48094863 -2
-0.0078471787 -0.11546034 0.47157463 -2
-0.0068315943 -0.11521569 0.47057474 -2
-0.0058279978 -0.11512417 0.47019976 -2
-0.0048272717 -0.11506338 0.46994978 -2
-0.0038275956 -0.11500271 0.46969983 -2
-0.002828968 -0.11494213 0.46944985 -2
-0.0018313846 -0.11488166 0.46919987 -2
-0.00083484309 -0.11482134 0.46894991 -2
0.00016066093 -0.1147611 0.46869993 -2
0.0011557469 -0.11476219 0.46869993 -2
0.0021508629 -0.11476339 0.46869993 -2
0.0031468517 -0.11479531 0.46882492 -2
0.004143408 -0.11482734 0.46894991 -2
0.0051419046 -0.11489009 0.46919987 -2
0.0061447774 -0.11501418 0.46969983 -2
0.0071536219 -0.11519959 0.47044975 -2
0.0081700347 -0.11544632 0.47144964 -2
0.0091956099 -0.1157544 0.47269949 -2
0.01022925 -0.11609321 0.47407436 -2
0.011259902 -0.11634031 0.47507423 -2
0.012304555 -0.1166794 0.4764491 -2
-0.11187798 -0.11536012 0.47269949 -2
-0.11076666 -0.11525531 0.47232455 -2
-0.10965741 -0.1151507 0.47194958 -2
-0.10863651 -0.11513773 0.47194958 -2
-0.10758755 -0.11509446 0.47182459 -2
-0.10656774 -0.11508183 0.47182459 -2
-0.10554833 -0.11506934 0.47182459 -2
-0.10455701 -0.11508749 0.47194958 -2
-0.10359295 -0.11513628 0.47219956 -2
-0.10262822 -0.1151852 0.47244954 -2
-0.10171653 -0.11529522 0.47294948 -2
-0.1008829 -0.11549674 0.47382438 -2
-0.072329335 -0.11510591 0.47332445 -2
-0.071223266 -0.11494637 0.47269949 -2
-0.070175797 -0.11487817 0.47244954 -2
-0.06914793 -0.11484048 0.47232455 -2
-0.068120822 -0.11480293 0.47219956 -2
-0.067112222 -0.11479589 0.47219956 -2
-0.066103868 -0.11478902 0.47219956 -2
-0.065095708 -0.11478224 0.47219956 -2
-0.064104728 -0.114806 0.47232455 -2
-0.063130111 -0.11486027 0.4725745 -2
-0.062171053 -0.11494501 0.47294948 -2
-0.061259087 -0.115121 0.47369939 -2
-0.06034413 -0.11529713 0.47444931 -2
-0.059473045 -0.11556445 0.4755742 -2
-0.058612701 -0.11586224 0.47682405 -2
-0.057732131 -0.11612979 0.47794893 -2
-0.056832105 -0.11636704 0.47894883 -2
-0.055913437 -0.11657406 0.47982374 -2
-0.054991201 -0.11678117 0.48069865 -2
-0.054009292 -0.11686695 0.48107362 -2
-0.0078493822 -0.11447838 0.4716996 -2
-0.006833646 -0.11423587 0.47069973 -2
-0.0058298986 -0.11414519 0.47032475 -2
-0.0048277359 -0.11405459 0.46994978 -2
-0.0038271539 -0.1139641 0.46957484 -2
-0.0028281505 -0.11387371 0.46919987 -2
-0.001831211 -0.11381381 0.46894991 -2
-0.00083531236 -0.113754 0.46869993 -2
0.00015959128 -0.11372463 0.46857494 -2
0.0011539911 -0.11369538 0.46844995 -2
0.0021484634 -0.11369655 0.46844995 -2
0.0031438083 -0.11372819 0.46857494 -2
0.0041397205 -0.11375994 0.46869993 -2
0.0051389416 -0.11385247 0.46907488 -2
0.0061398004 -0.11394513 0.46944985 -2
0.0071517979 -0.11418958 0.47044975 -2
0.0081724217 -0.11449483 0.4716996 -2
0.0091959788 -0.11476987 0.47282448 -2
0.010224371 -0.11504503 0.47394937 -2
0.011248717 -0.11522929 0.47469929 -2
0.012311812 -0.11574742 0.47682405 -2
0.013370031 -0.11614431 0.4784489 -2
-0.11288829 -0.11435073 0.47269949 -2
-0.11171677 -0.11418627 0.47207457 -2
-0.11063631 -0.11411272 0.47182459 -2
-0.10955736 -0.11403932 0.47157463 -2
-0.10850866 -0.1139963 0.47144964 -2
-0.10748941 -0.11398368 0.47144964 -2
-0.10644235 -0.11394098 0.47132465 -2
-0.10542417 -0.11392867 0.47132465 -2
-0.1044341 -0.11394674 0.47144964 -2
-0.10344385 -0.11396494 0.47157463 -2
-0.1024806 -0.11401348 0.47182459 -2
-0.10157042 -0.11412258 0.47232455 -2
-0.10073827 -0.11432239 0.47319946 -2
-0.099876359 -0.11449208 0.47394937 -2
-0.099194102 -0.11487326 0.4755742 -2
-0.072455421 -0.1142979 0.47419935 -2
-0.071309961 -0.11407956 0.47332445 -2
-0.070205614 -0.1139216 0.47269949 -2
-0.069195636 -0.11391439 0.47269949 -2
-0.068167858 -0.11387721 0.4725745 -2
-0.06715861 -0.11387027 0.4725745 -2
-0.066132084 -0.11383336 0.47244954 -2
-0.065140739 -0.11385679 0.4725745 -2
-0.064149089 -0.11388034 0.47269949 -2
-0.063190497 -0.11396427 0.47307447 -2
-0.062230494 -0.11404829 0.47344941 -2
-0.061301418 -0.11419263 0.47407436 -2
-0.060385771 -0.11436721 0.47482428 -2
-0.059514005 -0.1146322 0.47594914 -2
-0.058652982 -0.11492738 0.47719902 -2
-0.05777172 -0.11519258 0.47832391 -2
-0.056885842 -0.11545786 0.47944877 -2
-0.055980779 -0.11569314 0.48044866 -2
-0.055000152 -0.11577807 0.48082364 -2
-0.054032121 -0.11589319 0.48132357 -2
-0.0088904835 -0.1139772 0.47382438 -2
-0.0078515895 -0.11349624 0.47182459 -2
-0.0068356995 -0.1132559 0.47082469 -2
-0.0058317976 -0.113166 0.47044975 -2
-0.004828197 -0.11304614 0.46994978 -2
-0.0038277276 -0.11295648 0.46957484 -2
-0.002828835 -0.11286689 0.46919987 -2
-0.0018315185 -0.11277745 0.46882492 -2
-0.000835996 -0.11271816 0.46857494 -2
0.00015853114 -0.11268903 0.46844995 -2
0.0011525544 -0.11266004 0.46832496 -2
0.0021460771 -0.11263114 0.46819997 -2
0.0031399413 -0.11263244 0.46819997 -2
0.0041349456 -0.11266391 0.46832496 -2
0.0051332596 -0.11275564 0.46869993 -2
0.0061348416 -0.11287752 0.46919987 -2
0.007149992 -0.11317994 0.47044975 -2
0.0081726648 -0.11351258 0.47182459 -2
0.0092036612 -0.11387537 0.47332445 -2
0.010243781 -0.1142684 0.47494927 -2
0.011287898 -0.11463144 0.4764491 -2
0.012338453 -0.11499464 0.47794893 -2
0.013364019 -0.11508729 0.47832391 -2
-0.11395914 -0.11340156 0.47294948 -2
-0.11272578 -0.11317851 0.47207457 -2
-0.11161494 -0.11307549 0.4716996 -2
-0.11056475 -0.11303261 0.47157463 -2
-0.10951554 -0.11298987 0.47144964 -2
-0.10846727 -0.11294729 0.47132465 -2
-0.10744846 -0.11293484 0.47132465 -2
-0.10640181 -0.11289256 0.47119966 -2
-0.10535611 -0.11285047 0.47107467 -2
-0.10433904 -0.11283849 0.47107467 -2
-0.10334975 -0.11285657 0.47119966 -2
-0.10236033 -0.11287482 0.47132465 -2
-0.10142447 -0.11295305 0.4716996 -2
-0.10056718 -0.1131212 0.47244954 -2
-0.099707067 -0.11328948 0.47319946 -2
-0.099000439 -0.11363737 0.47469929 -2
-0.072467007 -0.11330739 0.47432432 -2
-0.071396746 -0.11321044 0.47394937 -2
-0.070291199 -0.11305393 0.47332445 -2
-0.06926173 -0.11301696 0.47319946 -2
-0.068214998 -0.11295029 0.47294948 -2
-0.067205064 -0.11294342 0.47294948 -2
-0.066195354 -0.1129367 0.47294948 -2
-0.065185852 -0.1129301 0.47294948 -2
-0.064193517 -0.11295348 0.47307447 -2
-0.06323424 -0.11303665 0.47344941 -2
-0.062273573 -0.11311995 0.47382438 -2
-0.061327666 -0.11323321 0.47432432 -2
-0.060427494 -0.11343609 0.47519922 -2
-0.059539407 -0.1136689 0.47619912 -2
-0.058677971 -0.11396148 0.477449 -2
-0.057811383 -0.11425416 0.47869885 -2
-0.056924816 -0.11451709 0.47982374 -2
-0.056019068 -0.11475029 0.48082364 -2
-0.055023465 -0.11480465 0.48107362 -2
-0.054012928 -0.11482928 0.48119858 -2
-0.008890504 -0.11296085 0.47382438 -2
-0.0078579588 -0.11257356 0.47219956 -2
-0.0068413834 -0.11233537 0.47119966 -2
-0.0058336975 -0.11218667 0.47057474 -2
-0.0048299418 -0.11206788 0.47007477 -2
-0.0038293162 -0.11197901 0.46969983 -2
-0.0028295149 -0.11186044 0.46919987 -2
-0.0018323077 -0.11177178 0.46882492 -2
-0.00083667162 -0.11168323 0.46844995 -2
0.00015743852 -0.11162459 0.46819997 -2
0.001151129 -0.11162565 0.46819997 -2
0.0021442771 -0.11159701 0.46807501 -2
0.0031369282 -0.11156849 0.46795002 -2
0.0041301884 -0.11156987 0.46795002 -2
0.0051289625 -0.11169057 0.46844995 -2
0.0061299033 -0.11181137 0.46894991 -2
0.0071520042 -0.11223029 0.47069973 -2
0.0081859147 -0.11270895 0.47269949 -2
0.0092283674 -0.11318773 0.47469929 -2
0.010282068 -0.11369644 0.47682405 -2
0.011318208 -0.11393707 0.47782394 -2
0.012336073 -0.11396915 0.47794893 -2
-0.11379527 -0.11223036 0.47232455 -2
-0.11268281 -0.11212816 0.47194958 -2
-0.111602 -0.11205585 0.4716996 -2
-0.11052266 -0.11198368 0.47144964 -2
-0.10947388 -0.11194139 0.47132465 -2
-0.10842604 -0.11189923 0.47119966 -2
-0.10740765 -0.11188693 0.47119966 -2
-0.10636144 -0.11184511 0.47107467 -2
-0.10534412 -0.11183311 0.47107467 -2
-0.10429951 -0.1117916 0.47094968 -2
-0.10328323 -0.1117799 0.47094968 -2
-0.1022945 -0.11179804 0.47107467 -2
-0.10135932 -0.11187562 0.47144964 -2
-0.1004495 -0.11198299 0.47194958 -2
-0.09959057 -0.11214979 0.47269949 -2
-0.098885171 -0.11249462 0.47419935 -2
-0.098225236 -0.11289881 0.47594914 -2
-0.072478689 -0.11231674 0.47444931 -2
-0.07146477 -0.11230943 0.47444931 -2
-0.070358306 -0.11215436 0.47382438 -2
-0.069327898 -0.11211775 0.47369939 -2
-0.068280227 -0.1120517 0.47344941 -2
-0.0672516 -0.11201534 0.47332445 -2
-0.066223726 -0.11197913 0.47319946 -2
-0.065231048 -0.1120022 0.47332445 -2
-0.064238042 -0.11202538 0.47344941 -2
-0.06326139 -0.11207826 0.47369939 -2
-0.062316731 -0.11219041 0.47419935 -2
-0.061370131 -0.11230266 0.47469929 -2
-0.060453393 -0.11247417 0.4754492 -2
-0.059580512 -0.11273445 0.47657409 -2
-0.058703016 -0.11299486 0.47769895 -2
-0.057836007 -0.11328494 0.47894883 -2
-0.056963846 -0.11357509 0.48019871 -2
-0.056013737 -0.11371754 0.48082364 -2
-0.0088928696 -0.11197436 0.47394937 -2
-0.0078622503 -0.1116201 0.47244954 -2
-0.0068488824 -0.1114431 0.4716996 -2
-0.0058386959 -0.11126623 0.47094968 -2
-0.0048342538 -0.11114854 0.47044975 -2
-0.0038298834 -0.11097185 0.46969983 -2
-0.002830944 -0.11088388 0.46932486 -2
-0.0018326023 -0.11073697 0.46869993 -2
-0.0008373392 -0.11064919 0.46832496 -2
0.00015639768 -0.11059108 0.46807501 -2
0.0011494075 -0.1105626 0.46795002 -2
0.002142489 -0.11056375 0.46795002 -2
0.0031347671 -0.11053549 0.46782503 -2
0.0041276533 -0.11053687 0.46782503 -2
0.0051205801 -0.11053833 0.46782503 -2
0.0061266175 -0.11077618 0.46882492 -2
0.0071540335 -0.11127993 0.47094968 -2
0.0092700915 -0.1127013 0.47694904 -2
-0.11483575 -0.11125197 0.47244954 -2
-0.11369184 -0.11112114 0.47194958 -2
-0.11258037 -0.11101992 0.47157463 -2
-0.11153009 -0.11097774 0.47144964 -2
-0.11051005 -0.11096512 0.47144964 -2
-0.10946143 -0.11092326 0.47132465 -2
-0.10841375 -0.11088154 0.47119966 -2
-0.10736702 -0.11083999 0.47107467 -2
-0.10632124 -0.11079859 0.47094968 -2
-0.10530433 -0.11078674 0.47094968 -2
-0.10428783 -0.11077506 0.47094968 -2
-0.10324427 -0.11073411 0.47082469 -2
-0.10225596 -0.11075212 0.47094968 -2
-0.10129432 -0.11079965 0.47119966 -2
-0.1003852 -0.1109061 0.4716996 -2
-0.099526942 -0.11107145 0.47244954 -2
-0.098770037 -0.11135439 0.47369939 -2
-0.098059706 -0.11169621 0.47519922 -2
-0.097394317 -0.11209685 0.47694904 -2
-0.072585933 -0.11147253 0.47519922 -2
-0.07153289 -0.11140668 0.47494927 -2
-0.070462607 -0.11131165 0.4745743 -2
-0.069412433 -0.11124608 0.47432432 -2
-0.068345524 -0.11115132 0.47394937 -2
-0.067298219 -0.11108604 0.47369939 -2
-0.066269673 -0.11105017 0.4735744 -2
-0.06527631 -0.11107305 0.47369939 -2
-0.064282618 -0.11109605 0.47382438 -2
-0.063305296 -0.11114846 0.47407436 -2
-0.062359963 -0.11125962 0.4745743 -2
-0.061428849 -0.11140018 0.47519922 -2
-0.060479354 -0.11151154 0.47569919 -2
-0.059606053 -0.1117695 0.47682405 -2
-0.05872814 -0.11202756 0.47794893 -2
-0.057875808 -0.11234432 0.4793238 -2
-0.057017781 -0.11266114 0.48069865 -2
-0.056052156 -0.11277304 0.48119858 -2
-0.008899929 -0.11104622 0.47432432 -2
-0.0078665446 -0.11066592 0.47269949 -2
-0.0068563852 -0.11054906 0.47219956 -2
-0.005845244 -0.1103738 0.47144964 -2
-0.004838563 -0.11022789 0.47082469 -2
-0.0038335046 -0.11005282 0.47007477 -2
-0.0028323689 -0.10990714 0.46944985 -2
-0.0018338677 -0.10976154 0.46882492 -2
-0.00083822245 -0.10964532 0.46832496 -2
0.00015540785 -0.10958774 0.46807501 -2
0.0011480042 -0.10953025 0.46782503 -2
0.0021401416 -0.10950213 0.46770003 -2
0.003132619 -0.10950337 0.46770003 -2
0.0041240309 -0.10947547 0.46757504 -2
0.0051163211 -0.10947695 0.46757504 -2
0.0061266148 -0.10980041 0.46894991 -2
-0.11581579 -0.11021493 0.47232455 -2
-0.11470117 -0.11011435 0.47194958 -2
-0.1136187 -0.1100431 0.4716996 -2
-0.11253778 -0.10997203 0.47144964 -2
-0.1115175 -0.10995943 0.47144964 -2
-0.11043902 -0.10988867 0.47119966 -2
-0.10942009 -0.10987636 0.47119966 -2
-0.10837283 -0.10983508 0.47107467 -2
-0.10732654 -0.10979397 0.47094968 -2
-0.10630939 -0.10978214 0.47094968 -2
-0.10526469 -0.1097413 0.47082469 -2
-0.10422093 -0.10970065 0.47069973 -2
-0.1032329 -0.10971838 0.47082469 -2
-0.10221757 -0.10970713 0.47082469 -2
-0.10122948 -0.10972516 0.47094968 -2
-0.10032102 -0.10983066 0.47144964 -2
-0.099463426 -0.10999453 0.47219956 -2
-0.098707184 -0.11027495 0.47344941 -2
-0.097945936 -0.11055547 0.47469929 -2
-0.097205162 -0.11086516 0.47607413 -2
-0.096559845 -0.11129137 0.47794893 -2
-0.070678316 -0.11064039 0.47607413 -2
-0.069625065 -0.11057544 0.47582418 -2
-0.068428949 -0.11027826 0.4745743 -2
-0.067344911 -0.11015548 0.47407436 -2
-0.066333167 -0.110149 0.47407436 -2
-0.065304436 -0.11011363 0.47394937 -2
-0.064327292 -0.11016549 0.47419935 -2
-0.063349292 -0.11021745 0.47444931 -2
-0.062403254 -0.11032757 0.47494927 -2
-0.061471462 -0.11046689 0.4755742 -2
-0.060537178 -0.11060628 0.47619912 -2
-0.059647307 -0.11083288 0.47719902 -2
-0.058784049 -0.11111762 0.4784489 -2
-0.05794584 -0.11146051 0.47994873 -2
-0.057101406 -0.11180347 0.48144856 -2
-0.0089046517 -0.11008786 0.4745743 -2
-0.0078708408 -0.10971104 0.47294948 -2
-0.0068620732 -0.10962424 0.4725745 -2
-0.0058517926 -0.10947957 0.47194958 -2
-0.004844157 -0.10933501 0.47132465 -2
-0.0038391626 -0.10919055 0.47069973 -2
-0.0028345434 -0.10895921 0.46969983 -2
-0.0018341499 -0.10872798 0.46869993 -2
-0.00083887414 -0.10861281 0.46819997 -2
0.00015438575 -0.10855576 0.46795002 -2
0.0011466119 -0.1084988 0.46770003 -2
0.0021389509 -0.10849993 0.46770003 -2
0.003130486 -0.10847217 0.46757504 -2
0.0041215271 -0.10844451 0.46745005 -2
0.0051134457 -0.10844594 0.46745005 -2
0.0061347927 -0.10896946 0.46969983 -2
-0.11797544 -0.10933637 0.47282448 -2
-0.11676464 -0.10914973 0.47207457 -2
-0.11564948 -0.10904997 0.4716996 -2
-0.11459712 -0.10900816 0.47157463 -2
-0.11354574 -0.10896653 0.47144964 -2
-0.1124655 -0.10889617 0.47119966 -2
-0.1114459 -0.10888373 0.47119966 -2
-0.11039742 -0.10884256 0.47107467 -2
-0.10937895 -0.10883044 0.47107467 -2
-0.10833212 -0.10878959 0.47094968 -2
-0.10731471 -0.10877775 0.47094968 -2
-0.10626949 -0.1087372 0.47082469 -2
-0.10525317 -0.10872568 0.47082469 -2
-0.10420956 -0.10868543 0.47069973 -2
-0.10322164 -0.10870302 0.47082469 -2
-0.10220648 -0.10869194 0.47082469 -2
-0.10121852 -0.10870983 0.47094968 -2
-0.10031021 -0.10881443 0.47144964 -2
-0.099452734 -0.10897682 0.47219956 -2
-0.098670565 -0.10922583 0.47332445 -2
-0.097909689 -0.10950379 0.4745743 -2
-0.097143777 -0.10978182 0.47582418 -2
-0.0963476 -0.11003112 0.47694904 -2
-0.095671833 -0.11042467 0.47869885 -2
-0.069673166 -0.1096397 0.47619912 -2
-0.068548463 -0.10946039 0.4754492 -2
-0.067427188 -0.10928123 0.47469929 -2
-0.066379264 -0.10921729 0.47444931 -2
-0.065367065 -0.10921102 0.47444931 -2
-0.064388983 -0.10926242 0.47469929 -2
-0.063410036 -0.10931395 0.47494927 -2
-0.06246306 -0.10942309 0.4754492 -2
-0.061530299 -0.10956111 0.47607413 -2
-0.060610961 -0.109728 0.47682405 -2
-0.059704229 -0.10992374 0.47769895 -2
-0.058855381 -0.11023465 0.47907382 -2
-0.057970673 -0.11048812 0.48019871 -2
-0.0089211026 -0.10927241 0.4754492 -2
-0.0078813806 -0.10884161 0.4735744 -2
-0.0068677622 -0.10869818 0.47294948 -2
-0.005856791 -0.10855483 0.47232455 -2
-0.0048523191 -0.10849778 0.47207457 -2
-0.0038437995 -0.10829721 0.47119966 -2
-0.0028374679 -0.10803928 0.47007477 -2
-0.0018358929 -0.10778146 0.46894991 -2
-0.00083974225 -0.10760991 0.46819997 -2
0.00015337314 -0.10752466 0.46782503 -2
0.0011455367 -0.10749694 0.46770003 -2
0.0021366286 -0.10744061 0.46745005 -2
0.0031283663 -0.10744184 0.46745005 -2
0.0041201403 -0.10744316 0.46745005 -2
0.0051119551 -0.10744459 0.46745005 -2
-0.11988702 -0.10822693 0.47232455 -2
-0.11879911 -0.10815629 0.47207457 -2
-0.11777512 -0.10814308 0.47207457 -2
-0.11665884 -0.10804413 0.4716996 -2
-0.11557531 -0.107974 0.47144964 -2
-0.11452363 -0.10793263 0.47132465 -2
-0.11350305 -0.10792006 0.47132465 -2
-0.11245306 -0.10787901 0.47119966 -2
-0.11140407 -0.10783813 0.47107467 -2
-0.11035602 -0.1077974 0.47094968 -2
-0.10930892 -0.10775682 0.47082469 -2
-0.10826278 -0.1077164 0.47069973 -2
-0.10724607 -0.10770472 0.47069973 -2
-0.10620155 -0.10766461 0.47057474 -2
-0.10518589 -0.10765322 0.47057474 -2
-0.10419831 -0.10767059 0.47069973 -2
-0.10318316 -0.10765949 0.47069973 -2
-0.10219551 -0.10767711 0.47082469 -2
-0.10123456 -0.10772347 0.47107467 -2
-0.10032611 -0.10782712 0.47157463 -2
-0.099468492 -0.10798803 0.47232455 -2
-0.098686159 -0.10823476 0.47344941 -2
-0.097899362 -0.10848159 0.4745743 -2
-0.097108044 -0.10872851 0.47569919 -2
-0.096337505 -0.10900408 0.47694904 -2
-0.095611893 -0.10933688 0.4784489 -2
-0.068668045 -0.10863915 0.47632411 -2
-0.067509532 -0.10840466 0.47532421 -2
-0.066442922 -0.10831284 0.47494927 -2
-0.065429769 -0.10830665 0.47494927 -2
-0.064450748 -0.10835759 0.47519922 -2
-0.06348753 -0.10843714 0.4755742 -2
-0.062539332 -0.10854529 0.47607413 -2
-0.061589193 -0.10865353 0.47657409 -2
-0.060653023 -0.10879041 0.47719902 -2
-0.059745606 -0.10898437 0.47807392 -2
-0.05886535 -0.1092354 0.47919881 -2
-0.057980482 -0.10948652 0.48032367 -2
-0.0079085631 -0.10819751 0.47519922 -2
-0.0068788975 -0.10785621 0.47369939 -2
-0.0058648898 -0.10768575 0.47294948 -2
-0.0048579108 -0.10760078 0.4725745 -2
-0.0038514927 -0.10748746 0.47207457 -2
-0.0028426531 -0.10720346 0.47082469 -2
-0.0018376308 -0.10683421 0.46919987 -2
-0.0008410514 -0.10666427 0.46844995 -2
0.00015245142 -0.10655133 0.46795002 -2
0.0011447775 -0.10652389 0.46782503 -2
0.0021366032 -0.10649654 0.46770003 -2
0.0031270965 -0.10644083 0.46745005 -2
0.0041187671 -0.10644215 0.46745005 -2
0.0051118457 -0.10647202 0.46757504 -2
-0.11990537 -0.10723493 0.47244954 -2
-0.1187859 -0.10713663 0.47207457 -2
-0.11766852 -0.1070385 0.4716996 -2
-0.11661505 -0.10699727 0.47157463 -2
-0.11556255 -0.10695619 0.47144964 -2
-0.11451107 -0.10691528 0.47132465 -2
-0.11346052 -0.1068745 0.47119966 -2
-0.11241098 -0.1068339 0.47107467 -2
-0.11136241 -0.10679345 0.47094968 -2
-0.11031476 -0.10675314 0.47082469 -2
-0.1092681 -0.106713 0.47069973 -2
-0.10822238 -0.10667301 0.47057474 -2
-0.1071776 -0.10663316 0.47044975 -2
-0.10616197 -0.10662179 0.47044975 -2
-0.10517467 -0.10663889 0.47057474 -2
-0.10418722 -0.10665612 0.47069973 -2
-0.10317222 -0.10664518 0.47069973 -2
-0.10221184 -0.106691 0.47094968 -2
-0.10125077 -0.10673697 0.47119966 -2
-0.10036873 -0.10686797 0.47182459 -2
-0.099510707 -0.10702739 0.4725745 -2
-0.098727949 -0.10727184 0.47369939 -2
-0.097914942 -0.10748807 0.47469929 -2
-0.097097978 -0.10770442 0.47569919 -2
-0.096302286 -0.10794912 0.47682405 -2
-0.095552064 -0.10825053 0.47819892 -2
-0.094969206 -0.10875004 0.48044866 -2
-0.068751663 -0.10775802 0.47694904 -2
-0.067591958 -0.10752577 0.47594914 -2
-0.066506654 -0.1074066 0.4754492 -2
-0.065492563 -0.10740048 0.4754492 -2
-0.064512581 -0.10745098 0.47569919 -2
-0.06356509 -0.10755802 0.47619912 -2
-0.062599272 -0.10763694 0.47657409 -2
-0.061648186 -0.1077442 0.47707403 -2
-0.060711049 -0.1078798 0.47769895 -2
-0.059787054 -0.10804373 0.4784489 -2
-0.058875401 -0.10823598 0.4793238 -2
-0.057975277 -0.10845651 0.48032367 -2
-0.0068972944 -0.10712412 0.47494927 -2
-0.0058745393 -0.10684253 0.47369939 -2
-0.004868641 -0.10681473 0.4735744 -2
-0.0038632641 -0.10678705 0.47344941 -2
-0.0028516089 -0.10650574 0.47219956 -2
-0.0018437704 -0.10613995 0.47057474 -2
-0.00084257836 -0.10574607 0.46882492 -2
0.00015165957 -0.10566241 0.46844995 -2
0.0011443339 -0.10557883 0.46807501 -2
0.0021365888 -0.10555174 0.46795002 -2
0.0031291831 -0.10555294 0.46795002 -2
0.0041218139 -0.10555424 0.46795002 -2
0.0051226802 -0.1057248 0.46869993 -2
0.0072213253 -0.10736316 0.47594914 -2
-0.11989219 -0.10621469 0.47244954 -2
-0.11874145 -0.10608926 0.47194958 -2
-0.11765565 -0.1060202 0.4716996 -2
-0.11657143 -0.10595133 0.47144964 -2
-0.11555 -0.10593877 0.47144964 -2
-0.11449866 -0.10589828 0.47132465 -2
-0.11344828 -0.10585796 0.47119966 -2
-0.11239887 -0.10581778 0.47107467 -2
-0.11135043 -0.10577776 0.47094968 -2
-0.11030295 -0.10573787 0.47082469 -2
-0.10925643 -0.10569815 0.47069973 -2
-0.10821086 -0.10565858 0.47057474 -2
-0.10716625 -0.10561916 0.47044975 -2
-0.10615075 -0.10560796 0.47044975 -2
-0.10516359 -0.10562492 0.47057474 -2
-0.10417628 -0.10564203 0.47069973 -2
-0.1031888 -0.10565928 0.47082469 -2
-0.10222829 -0.1057047 0.47107467 -2
-0.10132079 -0.10580636 0.47157463 -2
-0.10043808 -0.10593615 0.47219956 -2
-0.099632002 -0.10615017 0.47319946 -2
-0.098848023 -0.10639233 0.47432432 -2
-0.09805955 -0.10663456 0.4754492 -2
-0.097241081 -0.10684884 0.4764491 -2
-0.096418671 -0.10706325 0.477449 -2
-0.095667198 -0.10736179 0.47882384 -2
-0.095008992 -0.10777255 0.48069865 -2
-0.067638956 -0.10658862 0.47632411 -2
-0.066605426 -0.1065545 0.47619912 -2
-0.065555409 -0.10649253 0.47594914 -2
-0.06457448 -0.10654256 0.47619912 -2
-0.063626058 -0.10664862 0.47669908 -2
-0.062659264 -0.1067268 0.47707403 -2
-0.061707221 -0.10683307 0.47757399 -2
-0.06076913 -0.10696739 0.47819892 -2
-0.059828565 -0.10710183 0.47882384 -2
-0.058885511 -0.10723633 0.47944877 -2
-0.05793998 -0.10737098 0.48007372 -2
-0.057080876 -0.10767342 0.48144856 -2
-0.005898139 -0.10624775 0.4755742 -2
-0.0048883669 -0.10622021 0.4754492 -2
-0.0038780952 -0.10616487 0.47519922 -2
-0.0028598094 -0.10577453 0.47344941 -2
-0.0018503983 -0.10546808 0.47207457 -2
-0.00084634783 -0.10510585 0.47044975 -2
0.00015123654 -0.10502297 0.47007477 -2
0.001147868 -0.10499605 0.46994978 -2
0.0021439996 -0.10496922 0.46982482 -2
0.0031421408 -0.10502626 0.47007477 -2
0.0072234441 -0.10640045 0.47619912 -2
0.0082595861 -0.10673728 0.47769895 -2
-0.12000602 -0.10530612 0.47294948 -2
-0.11872859 -0.10507064 0.47194958 -2
-0.11764295 -0.10500228 0.4716996 -2
-0.1165898 -0.10496194 0.47157463 -2
-0.11553761 -0.10492172 0.47144964 -2
-0.11451676 -0.10490949 0.47144964 -2
-0.11346628 -0.1048696 0.47132465 -2
-0.11241674 -0.10482984 0.47119966 -2
-0.11139774 -0.10481803 0.47119966 -2
-0.11032059 -0.10475078 0.47094968 -2
-0.10927393 -0.10471147 0.47082469 -2
-0.10822824 -0.10467233 0.47069973 -2
-0.10721195 -0.10466111 0.47069973 -2
-0.10619608 -0.10465004 0.47069973 -2
-0.10518058 -0.10463911 0.47069973 -2
-0.10419313 -0.10465609 0.47082469 -2
-0.10323293 -0.104701 0.47107467 -2
-0.10229912 -0.10477379 0.47144964 -2
-0.10139094 -0.10487451 0.47194958 -2
-0.10056071 -0.10505862 0.47282448 -2
-0.099753395 -0.10527061 0.47382438 -2
-0.098968193 -0.10551048 0.47494927 -2
-0.098178484 -0.1057504 0.47607413 -2
-0.097358786 -0.10596268 0.47707403 -2
-0.096560381 -0.1062028 0.47819892 -2
-0.095807418 -0.1064985 0.47957376 -2
-0.095098294 -0.10684982 0.48119858 -2
-0.067898981 -0.1059826 0.47819892 -2
-0.066581883 -0.10550562 0.47607413 -2
-0.065618344 -0.10558278 0.4764491 -2
-0.064670347 -0.10568773 0.47694904 -2
-0.063687071 -0.10573742 0.47719902 -2
-0.06271933 -0.10581487 0.47757399 -2
-0.061750181 -0.10589243 0.47794893 -2
-0.060811408 -0.10602549 0.47857386 -2
-0.059870139 -0.10615867 0.47919881 -2
-0.058972448 -0.10637498 0.48019871 -2
-0.058070675 -0.10659138 0.48119858 -2
-0.0059217406 -0.10564525 0.477449 -2
-0.0049055237 -0.10556268 0.47707403 -2
-0.0038847653 -0.10531426 0.47594914 -2
-0.0028702735 -0.10512128 0.47507423 -2
-0.0018584947 -0.10487307 0.47394937 -2
-0.00085034047 -0.10448666 0.47219956 -2
0.00015097587 -0.10448757 0.47219956 -2
0.0011529293 -0.10454386 0.47244954 -2
0.0021554031 -0.1045726 0.4725745 -2
0.0031601111 -0.10465676 0.47294948 -2
0.0041675465 -0.10476869 0.47344941 -2
0.0051798741 -0.10493603 0.47419935 -2
0.0062068389 -0.10529708 0.47582418 -2
0.0072274748 -0.10546463 0.47657409 -2
0.0082599856 -0.10574292 0.47782394 -2
0.0092954272 -0.10599368 0.47894883 -2
-0.12005658 -0.10434066 0.47319946 -2
-0.11887308 -0.10419016 0.4725745 -2
-0.11769277 -0.10403985 0.47194958 -2
-0.11660831 -0.10397238 0.4716996 -2
-0.11555601 -0.1039326 0.47157463 -2
-0.11450469 -0.10389299 0.47144964 -2
-0.11348442 -0.10388105 0.47144964 -2
-0.11243477 -0.10384171 0.47132465 -2
-0.11138609 -0.10380254 0.47119966 -2
-0.11036764 -0.10379106 0.47119966 -2
-0.10929158 -0.10372462 0.47094968 -2
-0.1082745 -0.10371343 0.47094968 -2
-0.10725782 -0.10370236 0.47094968 -2
-0.10621335 -0.10366391 0.47082469 -2
-0.10522565 -0.10368063 0.47094968 -2
-0.10423779 -0.10369749 0.47107467 -2
-0.10327718 -0.103742 0.47132465 -2
-0.10234297 -0.10381413 0.4716996 -2
-0.10146122 -0.1039414 0.47232455 -2
-0.10063029 -0.10412376 0.47319946 -2
-0.099848598 -0.10436124 0.47432432 -2
-0.09908846 -0.10462629 0.4755742 -2
-0.098297544 -0.10486394 0.47669908 -2
-0.097476609 -0.10507418 0.47769895 -2
-0.096676961 -0.10531199 0.47882384 -2
-0.095922768 -0.10560488 0.48019871 -2
-0.095237099 -0.1059803 0.48194852 -2
-0.067981601 -0.10509457 0.47882384 -2
-0.066855602 -0.104924 0.47807392 -2
-0.065784611 -0.1048358 0.47769895 -2
-0.064732395 -0.1047752 0.477449 -2
-0.063748151 -0.10482439 0.47769895 -2
-0.062779449 -0.10490112 0.47807392 -2
-0.061841656 -0.10503282 0.47869885 -2
-0.0608855 -0.10513718 0.47919881 -2
-0.060005471 -0.10537876 0.48032367 -2
-0.0028777157 -0.10435185 0.47619912 -2
-0.0018616877 -0.10399649 0.4745743 -2
-0.00085433183 -0.10386033 0.47394937 -2
0.00015059662 -0.10386121 0.47394937 -2
0.001155857 -0.10388958 0.47407436 -2
0.0021622474 -0.10394544 0.47432432 -2
0.0031705669 -0.1040288 0.47469929 -2
0.0041805124 -0.10411222 0.47507423 -2
0.0051920908 -0.10419579 0.4754492 -2
0.0062118224 -0.10438902 0.47632411 -2
0.0072334171 -0.10455494 0.47707403 -2
0.0082604038 -0.10474837 0.47794893 -2
0.0092935814 -0.10496929 0.47894883 -2
-0.11904917 -0.10333465 0.47332445 -2
-0.11780507 -0.10313129 0.47244954 -2
-0.11665787 -0.10300992 0.47194958 -2
-0.11557455 -0.1029433 0.4716996 -2
-0.11449276 -0.10287684 0.47144964 -2
-0.11347263 -0.10286507 0.47144964 -2
-0.11242314 -0.10282618 0.47132465 -2
-0.11140415 -0.10281469 0.47132465 -2
-0.11035628 -0.10277608 0.47119966 -2
-0.1093384 -0.10276488 0.47119966 -2
-0.10829217 -0.10272656 0.47107467 -2
-0.10727537 -0.10271564 0.47107467 -2
-0.10625895 -0.10270486 0.47107467 -2
-0.10524292 -0.10269421 0.47107467 -2
-0.10428258 -0.10273818 0.47132465 -2
-0.10332156 -0.10278229 0.47157463 -2
-0.10238694 -0.10285374 0.47194958 -2
-0.10150477 -0.10297979 0.4725745 -2
-0.10067343 -0.10316042 0.47344941 -2
-0.099891298 -0.1033956 0.4745743 -2
-0.09913075 -0.10365811 0.47582418 -2
-0.098339386 -0.10389347 0.47694904 -2
-0.097569041 -0.10415612 0.47819892 -2
-0.096793652 -0.10441887 0.47944877 -2
-0.096038222 -0.10470892 0.48082364 -2
-0.066989511 -0.1041168 0.47907382 -2
-0.065933727 -0.10405665 0.47882384 -2
-0.064896174 -0.10402379 0.47869885 -2
-0.06387601 -0.10401823 0.47869885 -2
-0.062888883 -0.10406706 0.47894883 -2
-0.061933182 -0.10417033 0.47944877 -2
-0.061023176 -0.10435516 0.48032367 -2
-0.0018678195 -0.10328027 0.47594914 -2
-0.0008569684 -0.10306409 0.47494927 -2
0.00014982486 -0.10295647 0.47444931 -2
0.0011563521 -0.10301168 0.47469929 -2
0.0021639699 -0.103067 0.47494927 -2
0.0031726812 -0.10312241 0.47519922 -2
0.0041835895 -0.10320507 0.4755742 -2
0.0051974924 -0.10331491 0.47607413 -2
0.0062151905 -0.10345201 0.47669908 -2
0.00723748 -0.1036163 0.477449 -2
0.0082651619 -0.10380785 0.47832391 -2
0.0092966063 -0.1039995 0.47919881 -2
-0.11683118 -0.10215481 0.47269949 -2
-0.11565452 -0.10200786 0.47207457 -2
-0.1145417 -0.10191507 0.4716996 -2
-0.11346103 -0.10184945 0.47144964 -2
-0.11244148 -0.10183799 0.47144964 -2
-0.11139281 -0.10179966 0.47132465 -2
-0.11037437 -0.10178846 0.47132465 -2
-0.10932732 -0.10175041 0.47119966 -2
-0.10830998 -0.10173951 0.47119966 -2
-0.10729305 -0.10172874 0.47119966 -2
-0.10627648 -0.10171808 0.47119966 -2
-0.10528825 -0.10173456 0.47132465 -2
-0.10429987 -0.10175118 0.47144964 -2
-0.10336605 -0.10182182 0.47182459 -2
-0.10243105 -0.10189265 0.47219956 -2
-0.10154846 -0.10201748 0.47282448 -2
-0.10071668 -0.10219636 0.47369939 -2
-0.099960439 -0.10245622 0.47494927 -2
-0.099173136 -0.10268919 0.47607413 -2
-0.098381355 -0.10292226 0.47719902 -2
-0.097636066 -0.10320932 0.47857386 -2
-0.096885219 -0.10349645 0.47994873 -2
-0.096153781 -0.10381062 0.48144856 -2
-0.0018739492 -0.1025585 0.47732401 -2
-0.00085937505 -0.10223702 0.47582418 -2
0.00014913868 -0.10210362 0.47519922 -2
0.0011568549 -0.10213143 0.47532421 -2
0.0021651317 -0.10215935 0.4754492 -2
0.0031748067 -0.10221422 0.47569919 -2
0.0041866777 -0.10229604 0.47607413 -2
0.0052015437 -0.10240483 0.47657409 -2
0.0062202029 -0.10254057 0.47719902 -2
0.0072434535 -0.10270325 0.47794893 -2
0.0082699349 -0.10286604 0.47869885 -2
0.0093020741 -0.10305578 0.47957376 -2
-0.11579585 -0.10112463 0.47269949 -2
-0.11459079 -0.10095257 0.47194958 -2
-0.11350971 -0.10088765 0.4716996 -2
-0.11243016 -0.10082287 0.47144964 -2
-0.11141115 -0.10081169 0.47144964 -2
-0.11036331 -0.10077393 0.47132465 -2
-0.10931643 -0.10073631 0.47119966 -2
-0.10829921 -0.10072555 0.47119966 -2
-0.10731085 -0.10074162 0.47132465 -2
-0.10632235 -0.10075784 0.47144964 -2
-0.10533372 -0.10077421 0.47157463 -2
-0.10434491 -0.10079066 0.4716996 -2
-0.10341071 -0.10086068 0.47207457 -2
-0.10247528 -0.1009308 0.47244954 -2
-0.1016191 -0.10108113 0.47319946 -2
-0.10078664 -0.10125825 0.47407436 -2
-0.10000339 -0.10148887 0.47519922 -2
-0.099241696 -0.10174626 0.4764491 -2
-0.098449193 -0.10197701 0.47757399 -2
-0.097703218 -0.10226125 0.47894883 -2
-0.096951671 -0.10254556 0.48032367 -2
-0.096244484 -0.10288331 0.48194852 -2
-0.00086042122 -0.10124702 0.47594914 -2
0.00014845871 -0.10124789 0.47594914 -2
0.0011570622 -0.10122226 0.47582418 -2
0.0021663033 -0.1012499 0.47594914 -2
0.0031769429 -0.10130421 0.47619912 -2
0.0041897781 -0.10138521 0.47657409 -2
0.0052056075 -0.10149292 0.47707403 -2
0.0062268577 -0.10165388 0.47782394 -2
0.0072532296 -0.10184155 0.47869885 -2
0.0082833627 -0.10202932 0.47957376 -2
-0.11473105 -0.10006876 0.4725745 -2
-0.11355855 -0.099925123 0.47194958 -2
-0.11250839 -0.099887498 0.47182459 -2
-0.11140013 -0.099797092 0.47144964 -2
-0.11038169 -0.0997862 0.47144964 -2
-0.10936366 -0.099775456 0.47144964 -2
-0.10834603 -0.099764824 0.47144964 -2
-0.10732883 -0.099754363 0.47144964 -2
-0.1063402 -0.099770449 0.47157463 -2
-0.10537931 -0.099813096 0.47182459 -2
-0.10441774 -0.09985587 0.47207457 -2
-0.10348287 -0.09992522 0.47244954 -2
-0.10257383 -0.10002109 0.47294948 -2
-0.1017167 -0.10016993 0.47369939 -2
-0.10085671 -0.10031888 0.47444931 -2
-0.10004646 -0.10052079 0.4754492 -2
-0.099284343 -0.10077561 0.47669908 -2
-0.098517172 -0.10103051 0.47794893 -2
-0.09777049 -0.10131192 0.4793238 -2
-0.097018234 -0.10159339 0.48069865 -2
-0.096310332 -0.10192776 0.48232347 -2
-0.050433632 -0.10051493 0.47694904 -2
-0.049471729 -0.10061643 0.477449 -2
-0.048520535 -0.10074438 0.47807392 -2
-0.047541987 -0.10081973 0.4784489 -2
-0.046549816 -0.10086886 0.47869885 -2
-0.045568604 -0.1009444 0.47907382 -2
-0.044597551 -0.10104637 0.47957376 -2
-0.00086259097 -0.10038839 0.47669908 -2
0.00014774622 -0.10036293 0.47657409 -2
0.0011575808 -0.10033756 0.4764491 -2
0.0021680533 -0.10036492 0.47657409 -2
0.0031790896 -0.10039236 0.47669908 -2
0.0041939886 -0.10049889 0.47719902 -2
0.0052124104 -0.10063182 0.47782394 -2
0.0062367837 -0.10081752 0.47869885 -2
0.0072630192 -0.10097695 0.47944877 -2
-0.1149928 -0.099287376 0.47369939 -2
-0.11378796 -0.099119037 0.47294948 -2
-0.11255696 -0.098924644 0.47207457 -2
-0.11150736 -0.098887578 0.47194958 -2
-0.11048799 -0.098876849 0.47194958 -2
-0.10946902 -0.098866232 0.47194958 -2
-0.10845046 -0.098855749 0.47194958 -2
-0.1074323 -0.098845415 0.47194958 -2
-0.10641452 -0.098835178 0.47194958 -2
-0.10545295 -0.09887743 0.47219956 -2
-0.10449073 -0.098919824 0.47244954 -2
-0.10355514 -0.098988481 0.47282448 -2
-0.10267253 -0.09910959 0.47344941 -2
-0.10181443 -0.09925694 0.47419935 -2
-0.10100663 -0.099456728 0.47519922 -2
-0.10024746 -0.0997089 0.4764491 -2
-0.099483266 -0.099961162 0.47769895 -2
-0.098714069 -0.10021348 0.47894883 -2
-0.097914353 -0.10043976 0.48007372 -2
-0.097160585 -0.1007184 0.48144856 -2
-0.053247251 -0.09909007 0.47494927 -2
-0.052209958 -0.099033833 0.47469929 -2
-0.051200837 -0.099029839 0.47469929 -2
-0.050244745 -0.099130273 0.47519922 -2
-0.049312558 -0.099282935 0.47594914 -2
-0.048377335 -0.099435672 0.47669908 -2
-0.047414217 -0.099536367 0.47719902 -2
-0.046424799 -0.099584997 0.477449 -2
-0.045446344 -0.099659815 0.47782394 -2
-0.044454802 -0.099708647 0.47807392 -2
-0.043496378 -0.099835768 0.47869885 -2
-0.042535443 -0.099963002 0.4793238 -2
0.00014700196 -0.099449553 0.47707403 -2
0.0011581074 -0.099450476 0.47707403 -2
0.0021698119 -0.099477567 0.47719902 -2
0.0031829134 -0.099530809 0.477449 -2
0.0042004064 -0.099662311 0.47807392 -2
0.0052246782 -0.09987206 0.47907382 -2
-0.1126653 -0.098012932 0.4725745 -2
-0.11170334 -0.098054022 0.47282448 -2
-0.11059442 -0.097965673 0.47244954 -2
-0.1095745 -0.097955197 0.47244954 -2
-0.10855499 -0.097944848 0.47244954 -2
-0.10753588 -0.097934648 0.47244954 -2
-0.10651715 -0.097924553 0.47244954 -2
-0.10555465 -0.09796641 0.47269949 -2
-0.10461909 -0.098034278 0.47307447 -2
-0.10368229 -0.098102272 0.47344941 -2
-0.10279845 -0.098222144 0.47407436 -2
-0.10196596 -0.098393932 0.47494927 -2
-0.10118318 -0.098617546 0.47607413 -2
-0.10044854 -0.098893069 0.477449 -2
-0.099682309 -0.099142753 0.47869885 -2
-0.098962583 -0.0994443 0.48019871 -2
-0.098211251 -0.099720009 0.48157355 -2
-0.055292081 -0.098134778 0.47519922 -2
-0.054267272 -0.098104753 0.47507423 -2
-0.05310303 -0.097816728 0.47369939 -2
-0.052095991 -0.09781272 0.47369939 -2
-0.051143028 -0.097912043 0.47419935 -2
-0.050174873 -0.097985655 0.4745743 -2
-0.049218208 -0.09808515 0.47507423 -2
-0.048272248 -0.098210558 0.47569919 -2
-0.047323771 -0.098336041 0.47632411 -2
-0.046336316 -0.098384209 0.47657409 -2
-0.045359813 -0.098458275 0.47694904 -2
-0.044405088 -0.098584034 0.47757399 -2
-0.043425117 -0.098658286 0.47794893 -2
-0.042465858 -0.098784231 0.47857386 -2
-0.041525707 -0.09896186 0.47944877 -2
-0.04055028 -0.099062175 0.47994873 -2
-0.11172226 -0.097063132 0.47294948 -2
-0.11075948 -0.097103953 0.47319946 -2
-0.10979605 -0.097144909 0.47344941 -2
-0.10877449 -0.097134687 0.47344941 -2
-0.10772493 -0.097098969 0.47332445 -2
-0.10670445 -0.097089015 0.47332445 -2
-0.10571226 -0.097104818 0.47344941 -2
-0.10474756 -0.097146377 0.47369939 -2
-0.1038369 -0.097239316 0.47419935 -2
-0.10297867 -0.097383611 0.47494927 -2
-0.10217122 -0.097579233 0.47594914 -2
-0.10141298 -0.097826205 0.47719902 -2
-0.1007286 -0.098150119 0.47882384 -2
-0.10001156 -0.098448478 0.48032367 -2
-0.099262677 -0.098721258 0.48169854 -2
-0.055287853 -0.097119175 0.47519922 -2
-0.054134652 -0.096859597 0.47394937 -2
-0.053084988 -0.096778907 0.4735744 -2
-0.052064579 -0.096749432 0.47344941 -2
-0.051085278 -0.096796669 0.47369939 -2
-0.050131489 -0.096895084 0.47419935 -2
-0.04914983 -0.096942492 0.47444931 -2
-0.04820529 -0.097066626 0.47507423 -2
-0.047258236 -0.097190849 0.47569919 -2
-0.0462965 -0.097289599 0.47619912 -2
-0.045332775 -0.097388461 0.47669908 -2
-0.04435543 -0.097461864 0.47707403 -2
-0.043376621 -0.097535372 0.477449 -2
-0.04241851 -0.097660027 0.47807392 -2
-0.041457865 -0.09778478 0.47869885 -2
-0.040526357 -0.097986192 0.47969875 -2
-0.10600951 -0.096367173 0.47482428 -2
-0.10495906 -0.096332215 0.47469929 -2
-0.10399164 -0.096373484 0.47494927 -2
-0.10315899 -0.096541628 0.47582418 -2
-0.10251076 -0.096887395 0.47757399 -2
-0.10180223 -0.097182497 0.47907382 -2
-0.055283669 -0.096103877 0.47519922 -2
-0.054144856 -0.095872305 0.47407436 -2
-0.053109054 -0.095817775 0.47382438 -2
-0.052074466 -0.095763348 0.4735744 -2
-0.051108461 -0.095835373 0.47394937 -2
-0.050114606 -0.095856965 0.47407436 -2
-0.049159199 -0.095954441 0.4745743 -2
-0.04818913 -0.096026756 0.47494927 -2
-0.047217596 -0.096099161 0.47532421 -2
-0.046268892 -0.096222155 0.47594914 -2
-0.0453058 -0.096320011 0.4764491 -2
-0.044329077 -0.096392676 0.47682405 -2
-0.043362238 -0.096490696 0.47732401 -2
-0.042404491 -0.096614063 0.47794893 -2
-0.041444194 -0.096737511 0.47857386 -2
-0.04051305 -0.096936859 0.47957376 -2
-0.039618928 -0.097237334 0.48107362 -2
-0.055265028 -0.09506385 0.47507423 -2
-0.05415513 -0.094884761 0.47419935 -2
-0.05311916 -0.094830826 0.47394937 -2
-0.05209814 -0.094802007 0.47382438 -2
-0.051104762 -0.094823278 0.47394937 -2
-0.050124206 -0.094869666 0.47419935 -2
-0.049155671 -0.094941124 0.4745743 -2
-0.048173003 -0.094987683 0.47482428 -2
-0.047214247 -0.095084332 0.47532421 -2
-0.046253499 -0.095181078 0.47582418 -2
-0.04529075 -0.095277898 0.47632411 -2
-0.044337627 -0.095399812 0.47694904 -2
-0.043370619 -0.095496833 0.477449 -2
-0.042401597 -0.095593899 0.47794893 -2
-0.041441403 -0.095716089 0.47857386 -2
-0.04049978 -0.095888324 0.47944877 -2
-0.039606012 -0.096185647 0.48094863 -2
-0.055246454 -0.094024666 0.47494927 -2
-0.054151196 -0.093872242 0.47419935 -2
-0.053115316 -0.09381891 0.47394937 -2
-0.052108135 -0.09381514 0.47394937 -2
-0.051101103 -0.093811482 0.47394937 -2
-0.050120644 -0.093857378 0.47419935 -2
-0.049165148 -0.093952842 0.47469929 -2
-0.048182309 -0.093998924 0.47494927 -2
-0.047210962 -0.094069816 0.47532421 -2
-0.046262443 -0.094190285 0.47594914 -2
-0.045299526 -0.094286099 0.4764491 -2
-0.044334605 -0.094381995 0.47694904 -2
-0.043367688 -0.094477981 0.477449 -2
-0.042398762 -0.094574027 0.47794893 -2
-0.04143865 -0.094694935 0.47857386 -2
-0.040497109 -0.094865352 0.47944877 -2
-0.039582845 -0.095110051 0.48069865 -2
-0.060562305 -0.093447857 0.47707403 -2
-0.05956303 -0.093467951 0.47719902 -2
-0.058548056 -0.093463667 0.47719902 -2
-0.057533249 -0.09345945 0.47719902 -2
-0.056429796 -0.093308479 0.4764491 -2
-0.055242479 -0.093010776 0.47494927 -2
-0.054147329 -0.092860028 0.47419935 -2
-0.053111549 -0.092807285 0.47394937 -2
-0.052104454 -0.092803568 0.47394937 -2
-0.05111099 -0.092824444 0.47407436 -2
-0.050117139 -0.092845388 0.47419935 -2
-0.04916174 -0.092939846 0.47469929 -2
-0.048178986 -0.092985444 0.47494927 -2
-0.047220141 -0.093080074 0.4754492 -2
-0.046259306 -0.093174785 0.47594914 -2
-0.045308352 -0.093294047 0.47657409 -2
-0.044343255 -0.093388923 0.47707403 -2
-0.043364808 -0.09345942 0.477449 -2
-0.042395972 -0.093554467 0.47794893 -2
-0.041435946 -0.093674071 0.47857386 -2
-0.040483937 -0.093818195 0.4793238 -2
-0.039559729 -0.094035827 0.48044866 -2
-0.061556749 -0.092409573 0.47694904 -2
-0.060573772 -0.092453592 0.47719902 -2
-0.059480716 -0.092328198 0.47657409 -2
-0.058451843 -0.092299782 0.4764491 -2
